-1.1950936317 606361.3419227600 76.7630004883
-1.2473371029 606361.3757972717 73.2630004883
-1.2586802244 606361.3143234253 72.9390029907
-1.2637666464 606361.2204589844 72.9290008545
-1.2402557135 606360.6563606262 75.9430007935
-1.2506543398 606360.5938339233 75.7910003662
-1.3033893108 606360.7849655151 71.9580001831
-1.3084757328 606360.6911048889 71.7750015259
-1.3169169426 606360.5353317261 72.0559997559
-1.2958164215 606359.9082717896 74.9540023804
-1.3297270536 606360.0032463074 72.7770004272
-1.3088910580 606359.8148422241 74.7939987183
-1.3398456573 606359.8165206909 72.9150009155
-1.3761135340 606359.4429359436 71.7789993286
-1.3536001444 606359.2854843140 73.7659988403
-1.3795225620 606359.3800277710 71.7919998169
-1.3570091724 606359.2225799561 73.7500000000
-1.3845547438 606359.2871627808 71.7770004272
-1.3591394424 606359.0354194641 73.9660034180
-1.3625484705 606358.9725112915 73.9520034790
-1.3756231070 606358.8790817261 73.7170028687
-1.4065777063 606358.8807601929 71.7809982300
-1.4116098881 606358.7878952026 71.7799987793
-1.4166963100 606358.6940345764 71.7760009766
-1.3883790970 606358.3479957581 74.8629989624
-1.3917338848 606358.2860832214 74.8750000000
-1.3888319731 606358.1917915344 75.0410003662
-1.4244199991 606358.2558097839 72.9440002441
-1.3939183950 606358.0979270935 75.1409988403
-1.4294523001 606358.1629447937 72.8089981079
-1.3990046978 606358.0040664673 75.2360000610
-1.4023596048 606357.9421577454 75.3489990234
-1.3994576931 606357.8478622437 75.4449996948
-1.4045439959 606357.7539978027 75.5550003052
-1.4078989029 606357.6920890808 75.6660003662
-1.4129852057 606357.5982284546 75.7710037231
-1.4110817909 606357.5039863586 75.8889999390
-1.4144366980 606357.4420776367 75.9860000610
-1.4195230007 606357.3482131958 76.0849990845
-1.4246094227 606357.2543525696 76.1839981079
-1.4877431393 606357.3829574585 71.7870025635
-1.4216533899 606357.1610565186 76.2910003662
-1.4927753210 606357.2900924683 71.8820037842
-1.4250622988 606357.0981483459 76.3610000610
-1.4301487207 606357.0042877197 76.3580017090
-1.4335035086 606356.9423751831 76.3470001221
-1.4385899305 606356.8485145569 76.3349990845
-1.4436762333 606356.7546539307 76.3339996338
-1.4470311403 606356.6927413940 76.3349990845
-1.4521174431 606356.5988807678 76.3450012207
-1.4554723501 606356.5369720459 76.3470001221
-1.4990485907 606356.6014251709 73.6250000000
-1.4605586529 606356.4431076050 76.3470001221
-1.5041350126 606356.5075607300 73.8290023804
-1.4656450748 606356.3492469788 76.3440017700
-1.5011789799 606356.4142646790 74.0550003052
-1.4689998627 606356.2873382568 76.3369979858
-1.5062652826 606356.3204040527 74.2639999390
-1.4740862846 606356.1934738159 76.3330001831
-1.5033633709 606356.2261085510 74.5780029297
-1.4774951935 606356.1305694580 76.3330001831
-1.5067182779 606356.1641998291 74.7900009155
-1.4825274944 606356.0377044678 76.3330001831
-1.4859364033 606355.9747962952 76.3290023804
-1.4910228252 606355.8809356689 76.3229980469
-1.4960550070 606355.7880706787 76.3229980469
-1.4994640350 606355.7251625061 76.2350006104
-1.5045503378 606355.6313018799 76.3270034790
-1.5079051256 606355.5693893433 76.2080001831
-1.5180779696 606355.3816680908 76.5540008545
-1.5185308456 606355.2254638672 76.9270019531
-1.5189837217 606355.0692596436 77.3310012817
-0.3676362634 606371.8435363770 87.0130004883
-0.3646802306 606371.7502365112 87.0680007935
-0.3777548671 606371.6568069458 86.7669982910
-0.3828412294 606371.5629425049 86.7659988403
-0.3861960769 606371.5010375977 86.7630004883
-0.3912824392 606371.4071731567 86.7620010376
-0.3946913779 606371.3442687988 86.7610015869
-0.3980462253 606371.2823562622 86.7610015869
-0.4031325877 606371.1884918213 86.7580032349
-0.4064874351 606371.1265869141 86.7590026855
-0.4115737975 606371.0327224731 86.7570037842
-0.4149827361 606370.9698181152 86.7570037842
-0.4200150073 606370.8769531250 86.7519989014
-0.4234239459 606370.8140411377 86.7500000000
-0.4285103083 606370.7201843262 86.7500000000
-0.4318651557 606370.6582717896 86.7500000000
-0.4352740943 606370.5953674316 86.7490005493
-0.4403063357 606370.5025024414 86.7600021362
-0.4437153041 606370.4395904541 86.7770004272
-0.4488016665 606370.3457336426 86.7630004883
-0.4521565139 606370.2838211060 86.7659988403
-0.4572428763 606370.1899566650 86.7710037231
-0.4605977237 606370.1280517578 86.7620010376
-0.4656840861 606370.0341873169 86.7590026855
-0.4690930247 606369.9712829590 86.7580032349
-0.4724478722 606369.9093704224 86.7500000000
-0.4775342345 606369.8155059814 86.7500000000
-0.4808890820 606369.7536010742 86.7500000000
-0.4859754443 606369.6597366333 86.7500000000
-0.4893843830 606369.5968322754 86.7500000000
-0.4944166541 606369.5039672852 86.7500000000
-0.4978255928 606369.4410552979 86.7490005493
-0.5011804104 606369.3791503906 86.7500000000
-0.4953765869 606369.1905593872 87.7160034180
-0.5096757412 606369.2223815918 86.7450027466
-0.5147079825 606369.1295166016 86.7450027466
-0.5181169510 606369.0666046143 86.7470016479
-0.5232033134 606368.9727478027 86.7369995117
-0.5265581608 606368.9108352661 86.7379989624
-0.5045518279 606368.5961837769 88.8830032349
-0.5316445231 606368.8169708252 86.7450027466
-0.5079066157 606368.5342712402 88.8690032959
-0.5349993706 606368.7550659180 86.7519989014
-0.5129929781 606368.4404144287 88.7770004272
-0.5384082794 606368.6921539307 86.7399978638
-0.5226587057 606368.4098892212 88.6380004883
-0.5260676742 606368.3469848633 88.4840011597
-0.5310999155 606368.2541198730 88.4580001831
-0.5519358516 606368.4425201416 86.7020034790
-0.5552906990 606368.3806152344 86.7470016479
-0.5603770614 606368.2867507935 86.7389984131
-0.5492609143 606368.0668258667 88.1210021973
-0.5526157618 606368.0049209595 87.9729995728
-0.5722272396 606368.0680694580 86.7480010986
-0.5755820870 606368.0061645508 86.7369995117
-0.5535756946 606367.6915130615 88.8050003052
-0.5806684494 606367.9123001099 86.7320022583
-0.5586620569 606367.5976486206 88.9580001831
-0.5840773582 606367.8493957520 86.7399978638
-0.5620169044 606367.5357437134 89.1110000610
-0.5811213255 606367.7560958862 86.7870025635
-0.5878851414 606367.6312789917 87.2080001831
-0.5912940502 606367.5683746338 87.1940002441
-0.5738670826 606367.3170623779 88.9860000610
-0.5963804722 606367.4745101929 87.2360000610
-0.5789534450 606367.2231979370 88.9619979858
-0.5997353196 606367.4125976563 87.1320037842
-0.5823082924 606367.1612930298 88.9400024414
-0.6031442285 606367.3496932983 87.0830001831
-0.5857172012 606367.0983810425 88.8880004883
-0.6081764698 606367.2568283081 87.2119979858
-0.5890720487 606367.0364761353 88.8330001831
-0.6115854383 606367.1939239502 87.1539993286
-0.5941584110 606366.9426116943 88.7809982300
-0.6149402857 606367.1320114136 87.1419982910
-0.5975132585 606366.8806991577 88.7369995117
-0.6200266480 606367.0381469727 87.0970001221
-0.6009222269 606366.8177947998 88.6910018921
-0.6234356165 606366.9752426147 87.0370025635
-0.6042770743 606366.7558822632 88.6360015869
-0.6267904043 606366.9133300781 87.0500030518
-0.6093634367 606366.6620254517 88.6100006104
-0.6318767667 606366.8194732666 87.0299987793
-0.6127723455 606366.5991134644 88.6090011597
-0.6352316141 606366.7575607300 87.0800018311
-0.6161271930 606366.5372085571 88.5970001221
-0.6403179765 606366.6636962891 87.1240005493
-0.6212135553 606366.4433441162 88.5930023193
-0.6454043388 606366.5698394775 87.1760025024
-0.6245684028 606366.3814315796 88.5830001831
-0.6407709122 606366.5074920654 87.2600021362
-0.6376430392 606366.2880020142 88.5690002441
-0.6410520077 606366.2250976563 88.5650024414
-0.6444068551 606366.1631851196 88.5449981689
-0.6494932175 606366.0693283081 88.5360031128
-0.6528480649 606366.0074157715 88.5260009766
-0.6562569737 606365.9445114136 88.5159988403
-0.6613433361 606365.8506469727 88.5080032349
-0.6646981835 606365.7887344360 88.4980010986
-0.6681071520 606365.7258300781 88.4749984741
-0.6731393933 606365.6329650879 88.4580001831
-0.6765483618 606365.5700607300 88.4449996948
-0.6816347241 606365.4761962891 88.4380035400
-0.6849895120 606365.4142837524 88.4300003052
-0.6883984804 606365.3513793945 88.4160003662
-0.6934307218 606365.2585144043 88.4059982300
-0.6968396902 606365.1956100464 88.3880004883
-0.7001945376 606365.1336975098 88.3639984131
-0.7052809000 606365.0398330688 88.3479995728
-0.7086898685 606364.9769287109 88.3190002441
-0.7120447159 606364.9150161743 88.2620010376
-0.7171310782 606364.8211593628 88.2770004272
-0.7204858661 606364.7592468262 88.2669982910
-0.7238948345 606364.6963424683 88.2789993286
-0.7289811969 606364.6024780273 88.2259979248
-0.7560738921 606364.8232650757 85.8050003052
-0.7323360443 606364.5405654907 88.1230010986
-0.7611602545 606364.7294006348 85.7080001831
-0.7357450128 606364.4776611328 88.0159988403
-0.7645151019 606364.6674957275 85.6389999390
-0.7470881343 606364.4161834717 87.9260025024
-0.7811705470 606364.6373519897 84.9720001221
-0.7504970431 606364.3532791138 87.8450012207
-0.7908903956 606364.6058349609 84.4420013428
-0.7555292845 606364.2604141235 87.7500000000
-0.8068669438 606364.6066970825 83.3880004883
-0.7589382529 606364.1975021362 87.6350021362
-0.8102217913 606364.5447921753 83.2740020752
-0.7622931004 606364.1355972290 87.6009979248
-0.8315106630 606364.5769882202 82.1250000000
-0.8503891230 606364.6721496582 80.7340011597
-0.7657020688 606364.0726852417 87.5070037842
-0.8474872112 606364.5778503418 81.0130004883
-0.7760466337 606364.0111541748 87.3860015869
-0.7794555426 606363.9482498169 87.2929992676
-0.7845419645 606363.8543891907 87.2239990234
-0.8706804514 606364.2976989746 80.4240036011
-0.8940997124 606364.1427383423 79.6230010986
-0.8975086808 606364.0798339844 79.3750000000
-0.9023690820 606363.8607711792 79.8880004883
-0.9057239294 606363.7988624573 79.8649978638
-0.9161226153 606363.7363357544 79.7210006714
-0.9405403733 606363.5814285278 78.3740005493
-0.9518834949 606363.5199508667 78.0940017700
-0.9612846375 606363.0507736206 78.9339981079
-0.9726818800 606362.9883003235 78.7310028076
-0.9760367274 606362.9263916016 78.7200012207
-0.9939166307 606363.0214958191 77.0859985352
-1.0053138733 606362.9590225220 76.8010025024
-1.0483455658 606362.4606208801 75.8150024414
-1.0212528706 606362.2398300171 77.9309997559
-1.0517003536 606362.3987121582 75.5000000000
-1.0325959921 606362.1783561707 77.7500000000
-1.0903787613 606361.9621658325 74.5410003662
-1.0954650640 606361.8683013916 74.5169982910
-1.1068081856 606361.8068275452 74.2170028687
-1.0768135786 606361.4917411804 76.9520034790
-1.0801684856 606361.4298324585 76.8290023804
-1.0932431221 606361.3364028931 76.7600021362
-1.1464850903 606361.3703346252 73.2590026855
-1.1498398781 606361.3084220886 72.9300003052
-1.1629145145 606361.2149963379 72.9130020142
-1.1384050846 606360.6508407593 75.9440002441
-1.1895167828 606360.8719329834 71.9879989624
-1.1418141127 606360.5879325867 75.7770004272
-1.2015388012 606360.7794456482 71.9440002441
-1.2049477100 606360.7165374756 71.7870025635
-1.2080765963 606360.5294342041 72.0449981689
-1.1949644089 606359.9028053284 74.9430007935
-1.2288750410 606359.9977798462 72.7850036621
-1.2000507116 606359.8089447021 74.7770004272
-1.2310053110 606359.8106231689 72.9179992676
-1.2742630243 606359.4374160767 71.8000030518
-1.2517496347 606359.2799682617 73.7500000000
-1.2776719332 606359.3745079041 71.7770004272
-1.2551585436 606359.2170600891 73.7220001221
-1.2827042341 606359.2816429138 71.7460021973
-1.2572889328 606359.0298995972 73.9440002441
-1.2606978416 606358.9669914246 73.9160003662
-1.2737724781 606358.8735618591 73.7080001831
-1.3047270775 606358.8752403259 71.7770004272
-1.3097593784 606358.7823753357 71.7809982300
-1.3131682873 606358.7194671631 71.7770004272
-1.2795387506 606358.3420944214 74.8600006104
-1.2828936577 606358.2801856995 74.8730010986
-1.3155796528 606358.2499122620 72.9059982300
-1.2850780487 606358.0920295715 75.1470031738
-1.3206119537 606358.1570472717 72.7910003662
-1.2901644707 606357.9981689453 75.2369995117
-1.2935192585 606357.9362564087 75.3600006104
-1.2986055613 606357.8423957825 75.4670028687
-1.2957037687 606357.7481002808 75.5690002441
-1.2990585566 606357.6861915588 75.6660003662
-1.3041448593 606357.5923309326 75.7910003662
-1.3092312813 606357.4984664917 75.8880004883
-1.3142635822 606357.4056015015 75.9840011597
-1.3096841574 606357.3422622681 76.0970001221
-1.3147705793 606357.2484016418 76.2190017700
-1.3198027611 606357.1555366516 76.3199996948
-1.3232117891 606357.0926284790 76.3909988403
-1.3282980919 606356.9987678528 76.4580001831
-1.3316529989 606356.9368591309 76.4580001831
-1.3367393017 606356.8429946899 76.2760009766
-1.3400942087 606356.7810859680 76.2529983521
-1.3451805115 606356.6872253418 76.1529998779
-1.3502669334 606356.5933609009 76.2770004272
-1.3536217213 606356.5314521790 76.2809982300
-1.3587081432 606356.4375915527 76.3089981079
-1.3621170521 606356.3746833801 76.3330001831
-1.3671493530 606356.2818183899 76.3320007324
-1.3722356558 606356.1879577637 76.3349990845
-1.3928456306 606356.2511634827 74.5449981689
-1.3756446838 606356.1250495911 76.3339996338
-1.3978779316 606356.1582984924 74.6969985962
-1.3806768656 606356.0321846008 76.3349990845
-1.3840858936 606355.9692764282 76.3330001831
-1.3891721964 606355.8754158020 76.3310012817
-1.3942044973 606355.7825508118 76.3190002441
-1.3976134062 606355.7196426392 76.3079986572
-1.4026998281 606355.6257820129 76.3050003052
-1.4060546160 606355.5638732910 76.3040008545
-1.4111410379 606355.4700088501 76.3050003052
-1.4082391262 606355.3757133484 76.5550003052
-1.4096904993 606355.2195625305 76.9540023804
-1.4101434946 606355.0633583069 77.3570022583
-1.4185847044 606354.9075889587 77.7080001831
-0.2638281882 606371.7447738647 86.9710006714
-0.2672371268 606371.6818618774 86.7500000000
-0.2705919743 606371.6199569702 86.7500000000
-0.2790872753 606371.4631881714 86.7500000000
-0.2875284851 606371.3074111938 86.7259979248
-0.2908833325 606371.2455062866 86.7350006104
-0.2959696949 606371.1516418457 86.7300033569
-0.2981541455 606370.9634857178 87.0830001831
-0.3281112015 606370.5585098267 86.7360000610
-0.3331975639 606370.4646530151 86.7360000610
-0.3336504996 606370.3084487915 87.2910003662
-0.3142274320 606369.6504287720 90.2850036621
-0.3619301319 606369.9344253540 86.7340011597
-0.3652849793 606369.8725204468 86.7170028687
-0.3703713417 606369.7786560059 86.7089996338
-0.3737802804 606369.7157516479 86.6930007935
-0.3412825465 606369.1511611938 90.2630004883
-0.3509482741 606369.1206436157 89.7500000000
-0.3543572128 606369.0577316284 89.7519989014
-0.3657003343 606368.9962539673 89.5859985352
-0.3691092730 606368.9333496094 89.5719985962
-0.3741956353 606368.8394851685 89.5940017700
-0.3775504827 606368.7775802612 89.6009979248
-0.4075992107 606369.0916671753 86.6940002441
-0.3826368451 606368.6837158203 89.6190032959
-0.4109540582 606369.0297546387 86.6660003662
-0.3859916925 606368.6218032837 89.6240005493
-0.3910780251 606368.5279464722 89.6549987793
-0.3864987195 606368.4646072388 89.6930007935
-0.3898535371 606368.4026947021 89.6910018921
-0.3949399292 606368.3088302612 89.6930007935
-0.3982947469 606368.2469253540 89.6800003052
-0.4017036855 606368.1840133667 89.6520004272
-0.4147783518 606368.0905838013 89.6149978638
-0.4181331694 606368.0286788940 89.5380020142
-0.4481819272 606368.3427658081 86.6809997559
-0.4215421379 606367.9657669067 89.5139999390
-0.4248969555 606367.9038619995 89.4300003052
-0.4299833477 606367.8099975586 89.3899993896
-0.4427769184 606367.9989700317 87.8000030518
-0.4333381653 606367.7480850220 89.3479995728
-0.4461858571 606367.9360580444 87.7850036621
-0.4367471337 606367.6851806641 89.3050003052
-0.4401019514 606367.6232681274 89.2630004883
-0.4655172527 606367.8750152588 86.7630004883
-0.4435109198 606367.5603637695 89.2320022583
-0.4740125835 606367.7182464600 86.9420013428
-0.4790448248 606367.6253814697 87.0510025024
-0.4761429131 606367.5310897827 87.2610015869
-0.4812292755 606367.4372253418 87.2730026245
-0.4845841229 606367.3753128052 87.2750015259
-0.4896704853 606367.2814559937 87.2910003662
-0.4930794239 606367.2185440063 87.3190002441
-0.4819091558 606366.9996185303 88.8199996948
-0.4964342713 606367.1566390991 87.2570037842
-0.5015206337 606367.0627746582 87.2050018311
-0.5048754811 606367.0008621216 87.2080001831
-0.4990716279 606366.8122711182 88.3320007324
-0.4971682727 606366.7180328369 88.6250000000
-0.5133707523 606366.8440933228 87.1230010986
-0.5247138739 606366.7826156616 87.0550003052
-0.5125992298 606366.5626373291 88.5279998779
-0.5281228423 606366.7197113037 87.0589981079
-0.5089643002 606366.5003509521 88.5970001221
-0.5314776897 606366.6577987671 86.8610000610
-0.5365640521 606366.5639419556 86.8970031738
-0.5399188995 606366.5020294189 86.7360000610
-0.5433278680 606366.4391250610 86.7379989624
-0.5595303774 606366.5651855469 85.2630004883
-0.5484141707 606366.3452606201 86.7220001221
-0.5726050138 606366.4717559814 84.7779998779
-0.5759598613 606366.4098434448 84.7630004883
-0.5602102280 606366.1275787354 86.7630004883
-0.5480955839 606365.9076004028 88.5019989014
-0.5461921692 606365.8133621216 88.5070037842
-0.6054639816 606366.1610794067 84.0970001221
-0.6105503440 606366.0672149658 84.0859985352
-0.5650320649 606365.5950622559 88.4660034180
-0.5683869123 606365.5331497192 88.4580001831
-0.6226264238 606365.9737319946 83.5910034180
-0.6276587248 606365.8808670044 83.5559997559
-0.5974380970 606365.4405899048 86.7460021973
-0.6007929444 606365.3786773682 86.7399978638
-0.6042019129 606365.3157730103 86.7440032959
-0.6525834799 606365.5687561035 82.8750000000
-0.6005284190 606364.9400177002 88.3420028687
-0.6673355699 606365.4443740845 82.4020004272
-0.6038832664 606364.8781127930 88.3450012207
-0.6089696288 606364.7842483521 88.3330001831
-0.6123785973 606364.7213439941 88.3290023804
-0.6174108386 606364.6284790039 88.3280029297
-0.6208198071 606364.5655670166 88.3199996948
-0.6363434196 606364.7226409912 86.5390014648
-0.6513214111 606364.7234497070 85.5360031128
-0.6972926259 606365.0394058228 81.6819992065
-0.6563537121 606364.6305847168 85.7600021362
-0.6498709917 606364.4730072021 86.7570037842
-0.6723302603 606364.6314544678 84.5550003052
-0.6549032331 606364.3801422119 86.7399978638
-0.6919417381 606364.6946105957 83.0989990234
-0.7234418988 606364.8525466919 81.1110000610
-0.6583122015 606364.3172378540 86.7440032959
-0.6987054944 606364.5697937012 83.4169998169
-0.6616670489 606364.2553253174 86.7320022583
-0.7130046487 606364.6016082764 82.2639999390
-0.7302057147 606364.7277297974 80.6959991455
-0.6667534113 606364.1614608765 86.7500000000
-0.7352379560 606364.6348648071 80.8420028687
-0.6701623201 606364.0985565186 86.7500000000
-0.6786035299 606363.9427833557 86.7389984131
-0.6577675939 606363.7543830872 88.3369979858
-0.6628539562 606363.6605186462 88.3450012207
-0.6662628651 606363.5976104736 88.3430023193
-0.6712951660 606363.5047492981 88.3369979858
-0.6747040749 606363.4418411255 88.3430023193
-0.6780589223 606363.3799324036 88.3330001831
-0.7039812803 606363.4744720459 86.7630004883
-0.7903457880 606364.0429763794 79.2529983521
-0.6831452847 606363.2860679626 88.3330001831
-0.7073361278 606363.4125633240 86.7630004883
-0.7891212702 606363.9177284241 79.9720001221
-0.6865542531 606363.2231597900 88.3330001831
-0.7107450366 606363.3496551514 86.7630004883
-0.6899091005 606363.1612510681 88.3330001831
-0.7157772779 606363.2567901611 86.7570037842
-0.6949954629 606363.0673904419 88.3339996338
-0.7191862464 606363.1938819885 86.7500000000
-0.8009714484 606363.6990470886 79.6279983521
-0.6983503103 606363.0054817200 88.3330001831
-0.7242726088 606363.1000213623 86.7649993896
-0.7034366727 606362.9116172791 88.3339996338
-0.7276274562 606363.0381126404 86.7669982910
-0.7068455815 606362.8487091064 88.3330001831
-0.7310364246 606362.9752044678 86.7500000000
-0.7102004290 606362.7868003845 88.3349990845
-0.7360686660 606362.8823394775 86.7389984131
-0.7152867913 606362.6929397583 88.3460006714
-0.7394776344 606362.8194313049 86.7630004883
-0.7186416388 606362.6310310364 88.3470001221
-0.7365757227 606362.7251358032 86.7639999390
-0.7220506072 606362.5681228638 88.3470001221
-0.7271369696 606362.4742584229 88.3470001221
-0.7304918170 606362.4123497009 88.3440017700
-0.7563599944 606362.5078887939 86.7200012207
-0.7355781794 606362.3184890747 88.3470001221
-0.7389330268 606362.2565803528 88.3450012207
-0.7440193892 606362.1627159119 88.3470001221
-0.7474282980 606362.0998077393 88.3440017700
-0.7507831454 606362.0378990173 88.3440017700
-0.7558695078 606361.9440383911 88.3420028687
-0.7592243552 606361.8821296692 88.3420028687
-0.7626333237 606361.8192214966 88.3369979858
-0.7677196860 606361.7253570557 88.3359985352
-0.7710745335 606361.6634483337 88.3420028687
-0.7761608958 606361.5695877075 88.3369979858
-0.7795156837 606361.5076789856 88.3349990845
-0.7829246521 606361.4447708130 88.3209991455
-0.7880110145 606361.3509063721 88.3190002441
-0.7913658619 606361.2889976501 88.3059997559
-0.7947748303 606361.2260894775 88.2119979858
-0.7998070717 606361.1332283020 88.1340026855
-0.8102057576 606361.0706977844 88.0090026855
-0.8135606050 606361.0087890625 87.9000015259
-0.8169695735 606360.9458808899 87.7939987183
-0.8203243613 606360.8839721680 87.6890029907
-0.8254107237 606360.7901115417 87.5869979858
-0.8368079662 606360.7276344299 87.5090026855
-0.9764145017 606361.3300704956 76.6910018921
-0.8401628137 606360.6657257080 87.4120025635
-1.0262475014 606361.4269104004 73.3750000000
-0.8435717821 606360.6028175354 87.3280029297
-0.8486040235 606360.5099525452 87.2340011597
-1.0426770449 606361.2715721130 72.8649978638
-0.8520129919 606360.4470481873 87.1330032349
-0.8633561134 606360.3855705261 87.0270004272
-0.8488851190 606360.2275543213 88.3359985352
-0.8522399068 606360.1656455994 88.2529983521
-1.0131353140 606360.8002815247 76.0270004272
-0.8556488752 606360.1027374268 88.1520004272
-1.0779464245 606360.8979339600 72.0970001221
-0.8590037227 606360.0408287048 88.0640029907
-0.8710798025 606359.9473457336 87.9609985352
-1.0346511602 606360.5510826111 75.6969985962
-1.0864417553 606360.7411613464 71.7900009155
-0.8744346499 606359.8854370117 87.8750000000
-1.0999692678 606360.4915275574 72.1210021973
-1.0754598379 606359.9273757935 75.0360031128
-1.0902118683 606359.8029937744 74.7089996338
-1.0952982903 606359.7091293335 74.6930007935
-1.1238424778 606359.7737693787 72.9960021973
-1.1405520439 606359.7426261902 71.7509994507
-1.1439068317 606359.6807174683 71.7880020142
-1.1489932537 606359.5868568420 71.7730026245
-1.1315661669 606359.3355445862 73.6640014648
-1.1286642551 606359.2412490845 74.1250000000
-1.1421918869 606358.9916152954 74.0729980469
-1.1760483980 606359.0875892639 71.7880020142
-1.1455466747 606358.9297065735 73.9440002441
-1.1586213112 606358.8362770081 73.6279983521
-1.1980171204 606358.6821823120 71.7630004883
-1.1612586975 606358.4919166565 74.7730026245
-1.2031035423 606358.5883216858 71.8010025024
-1.1662909985 606358.3990516663 74.7630004883
-1.2081898451 606358.4944572449 71.7900009155
-1.1919872761 606358.3683967590 73.0100021362
-1.1667979956 606358.2418479919 74.9720001221
-1.2084168196 606358.2130584717 72.7080001831
-1.2117716074 606358.1511497498 72.7080001831
-1.1839073896 606357.6489067078 75.7910003662
-1.2458165884 606357.6522598267 72.1110000610
-1.1940801144 606357.4611816406 75.9300003052
-1.2623001337 606357.4959220886 71.7750015259
-1.2656549215 606357.4340133667 71.7630004883
-1.2627530098 606357.3397178650 71.9690017700
-1.2678394318 606357.2458572388 71.9520034790
-1.2680664063 606356.9644584656 72.9720001221
-1.2135999203 606356.8052749634 76.8170013428
-1.2186862230 606356.7114143372 76.8990020752
-1.2815939188 606356.7148246765 73.2360000610
-1.2762430906 606356.3700294495 74.2890014648
-1.2341182232 606356.1494255066 77.5830001831
-1.2846843004 606356.2142562866 74.4970016479
-1.2392045259 606356.0555648804 77.7630004883
-1.2442909479 606355.9617004395 77.8580017090
-1.2476457357 606355.8997917175 77.9179992676
-1.2447438240 606355.8054962158 78.0530014038
-1.2481528521 606355.7425880432 78.1520004272
-1.2531850338 606355.6497268677 78.2590026855
-1.2582714558 606355.5558624268 78.3730010986
-1.2536921501 606355.4925231934 78.4720001221
-1.2587243319 606355.3996582031 78.5680007935
-1.2621333599 606355.3367500305 78.6600036621
-1.2672196627 606355.2428894043 78.7770004272
-1.2705744505 606355.1809806824 78.8639984131
-1.2676726580 606355.0866851807 78.9800033569
-1.2727589607 606354.9928207397 79.0640029907
-1.2949923277 606355.0260734558 77.4179992676
-1.2761138678 606354.9309120178 79.1380004883
-1.3000786304 606354.9322128296 77.5220031738
-1.2891885042 606354.8374824524 78.7389984131
-1.2845549583 606354.7751426697 79.3330001831
-1.2896413803 606354.6812782288 79.3330001831
-1.2930502892 606354.6183738708 79.3290023804
-1.2980825901 606354.5255088806 79.3330001831
-1.3031688929 606354.4316444397 79.3310012817
-1.2985895872 606354.3683052063 79.5029983521
-1.3036218882 606354.2754402161 79.5130004883
-1.3070307970 606354.2125320435 79.5070037842
-1.3121172190 606354.1186714172 79.5169982910
-1.3154720068 606354.0567626953 79.7080001831
-1.3169234991 606353.9006118774 80.0820007324
-1.3174304962 606353.7434082031 80.4869995117
-1.3178834915 606353.5872039795 80.8150024414
-1.3200137615 606353.4000473022 81.2350006104
-0.2043294460 606371.6784515381 86.7480010986
-0.2094157934 606371.5845947266 86.7580032349
-0.2178570032 606371.4288177490 86.7399978638
-0.2212118357 606371.3669128418 86.7099990845
-0.2262982130 606371.2730484009 86.7070007324
-0.2168219090 606370.3021163940 90.3740005493
-0.2719672918 606370.4302825928 86.7500000000
-0.2753221393 606370.3683776855 86.7300033569
-0.2404680997 606369.8657531738 90.2720031738
-0.2438770533 606369.8028488159 90.2480010986
-0.2523182631 606369.6470718384 90.2910003662
-0.2956134677 606369.9939270020 86.6949996948
-0.2641684115 606369.4283981323 90.2259979248
-0.3041087985 606369.8371582031 86.7070007324
-0.2675232291 606369.3664855957 90.1940002441
-0.2779219449 606369.3039550781 90.0410003662
-0.2812767625 606369.2420501709 89.9440002441
-0.2810508013 606369.1168518066 90.2590026855
-0.2880405486 606369.1172332764 89.6969985962
-0.2931269109 606369.0233688354 89.9020004272
-0.3027926087 606368.9928512573 89.4260025024
-0.3166388273 606369.1808700562 87.7080001831
-0.3062015772 606368.9299392700 89.3960037231
-0.3100634515 606368.7108306885 89.8450012207
-0.3383806646 606369.0568695068 86.7649993896
-0.3134182692 606368.6489181519 89.8990020752
-0.3497237563 606368.9953918457 86.7369995117
-0.3185046315 606368.5550537109 89.8840026855
-0.3218594790 606368.4931488037 89.8580017090
-0.3252684176 606368.4302368164 89.8300018311
-0.3286232650 606368.3683319092 89.8050003052
-0.3337096274 606368.2744674683 89.7669982910
-0.3371185660 606368.2115631104 89.6809997559
-0.3404734135 606368.1496505737 89.6539993286
-0.3705221415 606368.4637374878 86.7360000610
-0.3438823819 606368.0867462158 89.5790023804
-0.3738769889 606368.4018249512 86.7360000610
-0.3789633512 606368.3079681396 86.7210006714
-0.3678472042 606368.0880432129 88.1220016479
-0.3670756221 606367.8065872192 89.3880004883
-0.3704304695 606367.7446823120 89.3470001221
-0.3859541118 606367.9017486572 87.7160034180
-0.3755168319 606367.6508178711 89.3140029907
-0.3893630505 606367.8388442993 87.6829986572
-0.3992547095 606367.9335174561 86.7500000000
-0.4043410718 606367.8396530151 86.7590026855
-0.3822806180 606367.5260009766 89.2030029297
-0.4127822816 606367.6838836670 86.9430007935
-0.4161371291 606367.6219711304 86.9440002441
-0.4149126410 606367.4967193604 87.2610015869
-0.4183215797 606367.4338150024 87.2590026855
-0.4234079421 606367.3399505615 87.2730026245
-0.4267627895 606367.2780456543 87.2919998169
-0.4173240364 606367.0271682739 88.8320007324
-0.4318491518 606367.1841812134 87.3330001831
-0.4207330048 606366.9642562866 88.7949981689
-0.4352039695 606367.1222686768 87.3059997559
-0.4386129379 606367.0593643188 87.2210006714
-0.4436993003 606366.9654998779 87.1949996948
-0.4308516085 606366.7775344849 88.5090026855
-0.4359379709 606366.6836700439 88.6330032349
-0.4504630864 606366.8406829834 87.1360015869
-0.4538179338 606366.7787780762 87.0419998169
-0.4652151465 606366.7163009644 86.8740005493
-0.4477881193 606366.4649887085 88.5810012817
-0.4702473879 606366.6234359741 86.9440002441
-0.4511429667 606366.4030838013 88.5630035400
-0.4673454762 606366.5291442871 87.0410003662
-0.4770112038 606366.4986190796 86.7639999390
-0.4942122400 606366.6247329712 85.3209991455
-0.4820975363 606366.4047622681 86.7590026855
-0.5123732686 606366.4374465942 84.7509994507
-0.5157281160 606366.3755340576 84.7360000610
-0.4765206873 606365.9347686768 88.5130004883
-0.4973025322 606366.1241683960 86.7460021973
-0.4798755348 606365.8728561401 88.5029983521
-0.5023888946 606366.0303115845 86.7610015869
-0.5362454057 606366.1262817383 84.1380004883
-0.4951346219 606365.5912704468 88.4459991455
-0.5001668930 606365.4984054565 88.4420013428
-0.5544064045 606365.9389877319 83.5380020142
-0.5657495260 606365.8775100708 83.5169982910
-0.5311214924 606365.5000839233 86.7450027466
-0.5345304012 606365.4371795654 86.7490005493
-0.5396167636 606365.3433151245 86.7470016479
-0.5429716110 606365.2814102173 86.7389984131
-0.5889969468 606365.5963592529 82.9390029907
-0.5923517346 606365.5344467163 82.8880004883
-0.5323083997 606364.9052810669 88.3580017090
-0.5357173681 606364.8423690796 88.3470001221
-0.6105127931 606365.3471603394 82.3190002441
-0.5390721560 606364.7804641724 88.3359985352
-0.5441585183 606364.6865997314 88.3320007324
-0.5475133657 606364.6246871948 88.3219985962
-0.5509223342 606364.5617828369 88.3190002441
-0.5751131177 606364.6882781982 86.4850006104
-0.5560086966 606364.4679183960 88.3150024414
-0.5910896659 606364.6891403198 85.5270004272
-0.5755660534 606364.5320739746 86.7500000000
-0.5806524158 606364.4382095337 86.7500000000
-0.6104210615 606364.6280975342 84.6520004272
-0.5840072632 606364.3763046265 86.7399978638
-0.6253991127 606364.6289138794 83.4860000610
-0.6542233229 606364.8177490234 81.1050033569
-0.6288080812 606364.5660018921 83.4850006104
-0.6527729034 606364.5672988892 82.3330001831
-0.6689754128 606364.6933670044 80.7500000000
-0.6677508950 606364.5681152344 81.2160034180
-0.6009437442 606364.0637588501 86.7760009766
-0.6837275028 606364.5689773560 80.4869995117
-0.6042985916 606364.0018539429 86.7740020752
-0.5965914130 606363.7190208435 88.3440017700
-0.5999462605 606363.6571083069 88.3330001831
-0.7006098628 606364.2574386597 80.3190002441
-0.6050326228 606363.5632476807 88.3330001831
-0.7120071054 606364.1949615479 79.8840026855
-0.6083874702 606363.5013389587 88.3330001831
-0.6117963791 606363.4384307861 88.3300018311
-0.7291154861 606364.0086135864 79.2220001221
-0.7209012508 606363.8829841614 79.9860000610
-0.6499676704 606363.1590881348 86.7630004883
-0.7407396436 606363.6647377014 79.6230010986
-0.6533766389 606363.0961799622 86.7630004883
-0.7557176948 606363.6655502319 78.5550003052
-0.6584088802 606363.0033149719 86.7630004883
-0.6618178487 606362.9404067993 86.7630004883
-0.7818669677 606363.4786911011 77.9599990845
-0.6574654579 606362.5956687927 88.3460006714
-0.6736679673 606362.7217292786 86.7450027466
-0.6608203053 606362.5337562561 88.3410034180
-0.7747845650 606363.1658515930 79.0690002441
-0.6659066677 606362.4398956299 88.3359985352
-0.6692615151 606362.3779869080 88.3330001831
-0.6871955395 606362.4720954895 86.7320022583
-0.8101466298 606363.1046752930 77.2529983521
-0.6726704836 606362.3150787354 88.3359985352
-0.6905503869 606362.4101867676 86.7519989014
-0.6777568460 606362.2212181091 88.3339996338
-0.6939593554 606362.3472785950 86.7590026855
-0.7997093797 606362.8537406921 78.6190032959
-0.6811116934 606362.1593093872 88.3330001831
-0.6989915967 606362.2544136047 86.7750015259
-0.8282535076 606362.9183807373 76.6549987793
-0.6765323281 606362.0959663391 88.3339996338
-0.7024005651 606362.1915054321 86.7770004272
-0.6815645695 606362.0031013489 88.3330001831
-0.7074869275 606362.0976448059 86.7649993896
-0.6849735379 606361.9401969910 88.3320007324
-0.7108417749 606362.0357360840 86.7460021973
-0.6900599003 606361.8463325500 88.3330001831
-0.7159281373 606361.9418716431 86.7669982910
-0.6934147477 606361.7844238281 88.3339996338
-0.7192829847 606361.8799629211 86.7500000000
-0.6968237162 606361.7215156555 88.3410034180
-0.7226918936 606361.8170547485 86.7600021362
-0.7018559575 606361.6286544800 88.3369979858
-0.7277782559 606361.7231941223 86.7480010986
-0.7052648664 606361.5657463074 88.3470001221
-0.7311331034 606361.6612854004 86.7399978638
-0.7103512883 606361.4718818665 88.3470001221
-0.7362194657 606361.5674209595 86.7600021362
-0.7137060761 606361.4099731445 88.3550033569
-0.7171150446 606361.3470649719 88.3509979248
-0.7221472859 606361.2542037964 88.3550033569
-0.7480696440 606361.3487434387 86.7220001221
-0.7255562544 606361.1912956238 88.3479995728
-0.7306426167 606361.0974311829 88.3470001221
-0.7339974642 606361.0355224609 88.3470001221
-0.7374063730 606360.9726142883 88.3470001221
-0.7424386740 606360.8797531128 88.3470001221
-0.7458475828 606360.8168449402 88.3430023193
-0.7509339452 606360.7229804993 88.3460006714
-0.7542887926 606360.6610717773 88.3450012207
-0.7576977611 606360.5981636047 88.3470001221
-0.7627300024 606360.5053024292 88.3460006714
-0.7661389709 606360.4423942566 88.3430023193
-0.7694938183 606360.3804855347 88.3359985352
-0.7745801806 606360.2866210938 88.3310012817
-0.7779890895 606360.2237129211 88.3300018311
-0.7985450029 606360.2879219055 86.9440002441
-0.7830213904 606360.1308517456 88.3170013428
-0.7864302993 606360.0679435730 88.2220001221
-0.7897851467 606360.0060348511 88.1110000610
-0.8011823893 606359.9435577393 88.0120010376
-0.8045372367 606359.8816490173 87.8899993896
-0.8096235991 606359.7877883911 87.7910003662
-0.8130325079 606359.7248802185 87.6930007935
-0.8163873553 606359.6629714966 87.5830001831
-0.8277845979 606359.6004943848 87.5110015869
-0.8328168392 606359.5076332092 87.4169998169
-0.8362258077 606359.4447250366 87.3050003052
-1.0101958513 606359.9859313965 75.0169982910
-0.8395806551 606359.3828163147 87.2249984741
-0.8446670175 606359.2889518738 87.1200027466
-0.8560642004 606359.2264785767 87.0299987793
-1.0219918489 606359.7682495117 74.7210006714
-1.0350664854 606359.6748199463 74.6770019531
-1.0529464483 606359.7699279785 73.0100021362
-1.0752339363 606359.8021812439 71.7659988403
-1.0786428452 606359.7392730713 71.7860031128
-1.0836751461 606359.6464080811 71.7740020752
-0.8632809520 606358.9454574585 87.0910034180
-1.0686584711 606359.3321342468 73.6520004272
-1.0684325695 606359.2069396973 74.1520004272
-1.1078283787 606359.0528450012 71.7880020142
-1.0853149891 606358.8953971863 74.0970001221
-1.0957136154 606358.8328666687 73.6100006104
-1.0930386782 606358.4571723938 74.7740020752
-1.1348834038 606358.5535774231 71.7910003662
-1.1382924318 606358.4906692505 71.7900009155
-1.1290795803 606358.3649902344 73.0139999390
-1.1065661907 606358.2075386047 75.0000000000
-1.1426072121 606358.1153564453 72.7180023193
-1.1227312088 606357.6135444641 75.7500000000
-1.1759190559 606357.6484718323 72.1380004883
-1.1241827011 606357.4573936462 75.9520034790
-1.1924027205 606357.4921379089 71.7770004272
-1.1974349022 606357.3992729187 71.7710037231
-1.2025213242 606357.3054084778 71.9810028076
-1.2059302330 606357.2425041199 71.9690017700
-1.1403476000 606356.8633995056 76.7760009766
-1.2051587105 606356.9610481262 72.9580001831
-1.1453799009 606356.7705345154 76.7799987793
-1.1487888098 606356.7076263428 76.9020004272
-1.1538752317 606356.6137657166 76.9020004272
-1.2106980085 606356.7109832764 73.2639999390
-1.2160112858 606356.3357200623 74.2630004883
-1.2164642811 606356.1795158386 74.5270004272
-1.1699860096 606356.0207672119 77.8330001831
-1.1733949184 606355.9578590393 77.8610000610
-1.1784813404 606355.8639984131 77.8639984131
-1.2191016674 606355.8351516724 75.5709991455
-1.2241879702 606355.7412910461 75.5830001831
-1.1840206385 606355.6139297485 78.2570037842
-1.2205530405 606355.6790046692 75.7779998779
-1.1873754263 606355.5520210266 78.3470001221
-1.1924618483 606355.4581604004 78.4589996338
-1.1888269186 606355.3958702087 78.5650024414
-1.1939132214 606355.3020095825 78.6780014038
-1.1989996433 606355.2081451416 78.8030014038
-1.2023544312 606355.1462364197 78.8830032349
-1.1994525194 606355.0519409180 78.9860000610
-1.2028615475 606354.9890365601 79.0849990845
-1.2078937292 606354.8961715698 79.1699981689
-1.2113027573 606354.8332633972 79.2910003662
-1.2163890600 606354.7394027710 79.3850021362
-1.2134330273 606354.6461029053 79.4820022583
-1.2168420553 606354.5831985474 79.5820007324
-1.2219283581 606354.4893341064 79.6409988403
-1.2252832651 606354.4274253845 79.7220001221
-1.2223813534 606354.3331298828 79.8330001831
-1.2257361412 606354.2712211609 79.9240036011
-1.2308225632 606354.1773605347 79.9560012817
-1.2342314720 606354.1144523621 79.9950027466
-1.2392636538 606354.0215873718 80.0270004272
-1.2426726818 606353.9586791992 80.1230010986
-1.2477589846 606353.8648185730 80.1890029907
-1.2431255579 606353.8024749756 80.3899993896
-1.2412222624 606353.7082328796 80.9110031128
-1.2463085651 606353.6143722534 80.9120025635
-1.2496633530 606353.5524635315 80.9010009766
-1.2501163483 606353.3962593079 81.1819992065
-1.2586116791 606353.2394866943 81.5690002441
-0.0983910412 606371.7668533325 87.0550003052
-0.1051548198 606371.6420364380 86.7259979248
-0.1085637733 606371.5791244507 86.7519989014
-0.1135960296 606371.4862670898 86.7929992676
-0.1170049682 606371.4233551025 86.7440032959
-0.1220913380 606371.3294906616 86.7659988403
-0.1149713397 606370.2965927124 90.3820037842
-0.1200577021 606370.2027359009 90.3820037842
-0.1234125420 606370.1408233643 90.3750000000
-0.1284989119 606370.0469589233 90.3700027466
-0.1664818078 606370.3624801636 87.2500000000
-0.1744700968 606370.3629150391 86.7350006104
-0.1403490603 606369.8282852173 90.2779998779
-0.1437038928 606369.7663726807 90.2860031128
-0.1471128464 606369.7034683228 90.1949996948
-0.1521451026 606369.6106033325 90.2870025635
-0.1914066076 606370.0503692627 86.6839981079
-0.1555540562 606369.5476913452 90.2770004272
-0.1947614551 606369.9884643555 86.6979980469
-0.1589088887 606369.4857864380 90.2630004883
-0.1998478174 606369.8945999146 86.7160034180
-0.1639952511 606369.3919219971 90.2500000000
-0.1674042046 606369.3290176392 90.2350006104
-0.1787473261 606369.2675399780 90.1100006104
-0.1821562648 606369.2046279907 89.9459991455
-0.1792002469 606369.1113357544 90.2649993896
-0.1826091856 606369.0484237671 90.1380004883
-0.1922748834 606369.0179061890 89.6380004883
-0.2019405961 606368.9873809814 89.3980026245
-0.2227765471 606369.1757888794 87.7080001831
-0.2053495347 606368.9244766235 89.3870010376
-0.2058024555 606368.7682723999 90.0270004272
-0.2108888328 606368.6744079590 90.0100021362
-0.2375286072 606369.0513992310 86.7669982910
-0.2142436653 606368.6125030518 89.9850006104
-0.2408834547 606368.9894943237 86.7340011597
-0.2176526040 606368.5495910645 89.9449996948
-0.2210074514 606368.4876861572 89.8889999390
-0.2260938138 606368.3938217163 89.8270034790
-0.2295027673 606368.3309097290 89.7890014648
-0.2328575999 606368.2690048218 89.7779998779
-0.2362665534 606368.2060928345 89.6920013428
-0.2662611604 606368.5211791992 86.7229995728
-0.2696701288 606368.4582748413 86.7480010986
-0.2747023702 606368.3654098511 86.7360000610
-0.2659966350 606368.0825195313 88.1330032349
-0.2662236094 606367.8011245728 89.3830032349
-0.2713099718 606367.7072601318 89.3560028076
-0.2841035426 606367.8962326050 87.7080001831
-0.2984026670 606367.9280471802 86.7509994507
-0.3034890592 606367.8341903687 86.8089981079
-0.2814285755 606367.5205383301 89.2020034790
-0.3068438768 606367.7722778320 86.7949981689
-0.3119302392 606367.6784133911 86.8000030518
-0.3090283275 606367.5841217041 87.1279983521
-0.3140605986 606367.4912567139 87.2109985352
-0.3191469610 606367.3973922729 87.2399978638
-0.3225558996 606367.3344879150 87.2669982910
-0.3275881708 606367.2416229248 87.2710037231
-0.3084837198 606367.0212707520 88.8470001221
-0.3309971094 606367.1787185669 87.2770004272
-0.3343519568 606367.1168060303 87.2669982910
-0.3394383192 606367.0229415894 87.1880035400
-0.3319029510 606366.8663101196 88.1660003662
-0.3306784630 606366.7410583496 88.6200027466
-0.3462021053 606366.8981246948 87.1660003662
-0.3340874016 606366.6781539917 88.5950012207
-0.3512884676 606366.8042678833 87.1139984131
-0.3529658914 606366.7733078003 86.8970031738
-0.3580522537 606366.6794509888 86.8750000000
-0.3459375799 606366.4594726563 88.5790023804
-0.3614071012 606366.6175384521 86.9300003052
-0.3509698212 606366.3666076660 88.5640029907
-0.3664934635 606366.5236740112 86.8970031738
-0.3778906763 606366.4612045288 86.8280029297
-0.3749346733 606366.3679046631 87.0640029907
-0.4105226994 606366.4319229126 84.7330017090
-0.4138775170 606366.3700180054 84.7200012207
-0.3746701181 606365.9292526245 88.5220031738
-0.3981820345 606366.0867538452 86.7210006714
-0.3780249655 606365.8673400879 88.5169982910
-0.4015368819 606366.0248413086 86.7500000000
-0.4371249080 606366.0888595581 84.1460037231
-0.3949614763 606365.5548019409 88.4319992065
-0.3983163238 606365.4928894043 88.4390029907
-0.4535543919 606365.9335250854 83.5270004272
-0.4586407542 606365.8396606445 83.5120010376
-0.4222811460 606365.4941864014 86.7529983521
-0.4273675084 606365.4003219604 86.7490005493
-0.4307764769 606365.3374176025 86.7480010986
-0.4358087182 606365.2445526123 86.7369995117
-0.4791580737 606365.5904083252 82.9520034790
-0.4271029830 606364.9616699219 88.3590011597
-0.4304578304 606364.8997573853 88.3610000610
-0.5052532554 606365.4045486450 82.3209991455
-0.5086622238 606365.3416366577 82.3040008545
-0.4388990402 606364.7439880371 88.3479995728
-0.4423079789 606364.6810836792 88.3410034180
-0.4507491887 606364.5253067017 88.3089981079
-0.4742610753 606364.6828155518 86.4830017090
-0.4541581273 606364.4624023438 88.3010025024
-0.4713591933 606364.5885162354 86.7460021973
-0.4892391264 606364.6836242676 85.6510009766
-0.4763914347 606364.4956512451 86.7500000000
-0.4798004031 606364.4327468872 86.7460021973
-0.5023137927 606364.5901947021 84.6949996948
-0.5499623418 606364.8751907349 81.0910034180
-0.5245471001 606364.6234436035 83.5169982910
-0.5533713102 606364.8122787476 81.0690002441
-0.5395250916 606364.6242599487 82.3460006714
-0.5429340601 606364.5613479614 82.3300018311
-0.5671248436 606364.6878433228 80.7369995117
-0.5668988824 606364.5626449585 81.2910003662
-0.5000917315 606364.0582962036 86.7620010376
-0.5755660534 606364.5320739746 80.4800033569
-0.5051780939 606363.9644317627 86.7500000000
-0.4913318753 606363.7764091492 88.3369979858
-0.4947408438 606363.7135009766 88.3330001831
-0.4997730851 606363.6206359863 88.3280029297
-0.6004908681 606364.2199630737 80.3079986572
-0.5031820536 606363.5577278137 88.3330001831
-0.5082684159 606363.4638671875 88.3229980469
-0.5046334863 606363.4015769958 88.3209991455
-0.6249086261 606364.0650558472 79.2080001831
-0.6282634735 606364.0031509399 79.2170028687
-0.6190506816 606363.8774681091 79.9589996338
-0.5457608104 606363.2155303955 86.7490005493
-0.5491156578 606363.1536216736 86.7590026855
-0.6388891339 606363.6592216492 79.5999984741
-0.6548656821 606363.6600875854 78.5419998169
-0.5575568676 606362.9978523254 86.7630004883
-0.5626432300 606362.9039878845 86.7720031738
-0.6747040749 606363.4418411255 77.9300003052
-0.5452162027 606362.6526756287 88.3550033569
-0.5486251712 606362.5897674561 88.3470001221
-0.6705777049 606363.2222938538 79.0770034790
-0.6756099463 606363.1294326782 79.0410003662
-0.5570663810 606362.4339981079 88.3310012817
-0.5604212284 606362.3720893860 88.3290023804
-0.7082960606 606363.0991554260 77.2630004883
-0.6988573074 606362.8482780457 78.6100006104
-0.5901513100 606362.2485160828 86.7639999390
-0.7280803919 606362.8819084167 76.6510009766
-0.5952376723 606362.1546554565 86.7669982910
-0.5986465812 606362.0917472839 86.7649993896
-0.5857989192 606361.9037742615 88.3369979858
-0.6036788821 606361.9988822937 86.7600021362
-0.5892078876 606361.8408699036 88.3290023804
-0.6070877910 606361.9359741211 86.7360000610
-0.5942401290 606361.7480049133 88.3310012817
-0.6121741533 606361.8421134949 86.7630004883
-0.7304918170 606362.4123497009 78.0370025635
-0.5976490974 606361.6850967407 88.3320007324
-0.6155290008 606361.7802047729 86.7379989624
-0.6010038853 606361.6231880188 88.3330001831
-0.6189379692 606361.7172966003 86.7630004883
-0.6060903072 606361.5293235779 88.3349990845
-0.6239702106 606361.6244316101 86.7570037842
-0.7745210528 606362.3205986023 75.3690032959
-0.6094992161 606361.4664192200 88.3440017700
-0.6273791790 606361.5615234375 86.7669982910
-0.6145314574 606361.3735542297 88.3450012207
-0.6324655414 606361.4676628113 86.7630004883
-0.6179404259 606361.3106460571 88.3450012207
-0.6358203888 606361.4057540894 86.7500000000
-0.6212952733 606361.2487373352 88.3410034180
-0.6392292976 606361.3428459167 86.7669982910
-0.6263816357 606361.1548728943 88.3420028687
-0.6442615986 606361.2499809265 86.7529983521
-0.6297906041 606361.0919685364 88.3430023193
-0.6476705074 606361.1870727539 86.7500000000
-0.6331453919 606361.0300559998 88.3470001221
-0.6527568698 606361.0932121277 86.7500000000
-0.6382318139 606360.9361953735 88.3470001221
-0.6561117172 606361.0313034058 86.7490005493
-0.6415866017 606360.8742866516 88.3489990234
-0.6595206857 606360.9683952332 86.7649993896
-0.6466729641 606360.7804222107 88.3479995728
-0.6645529270 606360.8755302429 86.7239990234
-0.6500819325 606360.7175178528 88.3550033569
-0.6679618955 606360.8126220703 86.7399978638
-0.6534367800 606360.6556053162 88.3499984741
-0.6585231423 606360.5617446899 88.3479995728
-0.6618779898 606360.4998359680 88.3499984741
-0.6669643521 606360.4059715271 88.3509979248
-0.6703733206 606360.3430671692 88.3550033569
-0.6737281084 606360.2811546326 88.3509979248
-0.6788144708 606360.1872940063 88.3479995728
-0.6741810441 606360.1249504089 88.3460006714
-0.6855782866 606360.0624771118 88.3330001831
-0.6906646490 606359.9686164856 88.3190002441
-0.6940194964 606359.9067039490 88.3050003052
-0.6991058588 606359.8128433228 88.2900009155
-0.7024607062 606359.7509346008 88.2750015259
-0.7058696151 606359.6880264282 88.2630004883
-0.7162142396 606359.6264953613 87.5849990845
-0.7196231484 606359.5635871887 87.4860000610
-0.7229779959 606359.5016784668 87.3980026245
-0.7343752384 606359.4392051697 87.2910003662
-0.7181727290 606359.3131446838 88.2580032349
-0.7232590914 606359.2192802429 88.2369995117
-0.7266139388 606359.1573715210 88.2630004883
-0.9218728542 606359.7307777405 74.7040023804
-0.7300228477 606359.0944633484 88.3190002441
-0.9458376765 606359.7320747375 73.0350036621
-0.7350551486 606359.0016021729 88.2939987183
-0.9704813957 606359.7023658752 71.7910003662
-0.7384640574 606358.9386940002 88.2249984741
-0.9755677581 606359.6085052490 71.7500000000
-0.7631077766 606358.9089813232 87.1050033569
-0.7681941390 606358.8151206970 87.2080001831
-0.7635607123 606358.7527770996 87.3270034790
-0.9614955783 606359.2952842712 73.7170028687
-0.7686470747 606358.6589164734 87.4179992676
-0.9585936666 606359.2009887695 74.0690002441
-0.7720560431 606358.5960083008 87.5390014648
-0.7700985670 606358.5027656555 87.6320037842
-1.0026229620 606359.1092376709 71.8020019531
-0.7735074759 606358.4398574829 87.7500000000
-0.9721212387 606358.9513549805 74.1350021362
-1.0059777498 606359.0473251343 71.7910003662
-0.7785938382 606358.3459968567 87.8690032959
-0.9834643602 606358.8898773193 73.6780014038
-0.7819486856 606358.2840881348 87.9459991455
-0.9885507226 606358.7960166931 73.5830001831
-0.7790467739 606358.1897926331 88.0859985352
-0.7824016213 606358.1278839111 88.1539993286
-0.7874879837 606358.0340194702 88.2850036621
