-0.1417365670 4006616.0618057251 137.7480010986
-0.1640940905 4006616.0027618408 137.7440032959
-0.1863852888 4006615.9366474152 137.7420043945
-0.2087427974 4006615.8776044846 137.7380065918
-0.2298947126 4006615.8106517792 137.7350006104
-0.2511973381 4006615.7446880341 137.7350006104
-0.4865337014 4006615.8352575302 133.1300048828
-0.5534858704 4006615.8564100266 131.7790069580
-0.2429088950 4006615.6903162003 137.7440032959
-0.5066307187 4006615.7613859177 133.1470031738
-0.6395465136 4006615.8038396835 130.7550048828
-0.2652000785 4006615.6242017746 137.7530059814
-0.6289975643 4006615.7346391678 131.0070037842
-0.2875576019 4006615.5651588440 137.7530059814
-0.3088602126 4006615.4991950989 137.7460021973
-0.5724313259 4006615.5692758560 133.0240020752
-0.7042922378 4006615.6048097610 130.6790008545
-0.5935832858 4006615.5023231506 133.0420074463
-0.7254441977 4006615.5378580093 130.6640014648
-0.0228349101 4006615.2818164825 143.8370056152
-0.6170800328 4006615.4441175461 133.0290069580
-0.0451924317 4006615.2227725983 143.8670043945
-0.6382319927 4006615.3771657944 132.9880065918
-0.0685385168 4006615.1635780334 143.9040069580
-0.6595345736 4006615.3112020493 132.9620056152
-0.0591951683 4006615.1022863388 143.9230041504
-0.0815526918 4006615.0432434082 144.0590057373
-0.0722093433 4006614.9819507599 144.4190063477
-0.0933612585 4006614.9149990082 144.4400024414
-0.0533719398 4006614.8583784103 145.2120056152
-0.0745238587 4006614.7914266586 145.2870025635
-0.0968813673 4006614.7323827744 145.2890014648
-0.1203781664 4006614.6741771698 145.2830047607
-0.1427356750 4006614.6151332855 145.2790069580
-0.9206396341 4006614.7413454056 131.2100067139
-0.1650931835 4006614.5560903549 145.2610015869
-0.1569554359 4006614.5027065277 145.2070007324
-0.1793129444 4006614.4436635971 145.1860046387
-0.2026590556 4006614.3844690323 145.1790008545
-1.0734442472 4006611.5964012146 144.5850067139
-1.0653064251 4006611.5430183411 144.9570007324
-1.0570180416 4006611.4886465073 144.9680023193
-1.1404504776 4006611.4121999741 144.2570037842
-1.3547543287 4006610.5419664383 145.0310058594
-1.3770455122 4006610.4758520126 144.7480010986
-1.4277884960 4006610.3973083496 144.0980072021
0.5077149868 4006619.0609283447 132.4660034180
0.4030339718 4006619.1238727570 130.7890014648
0.5241411924 4006618.9531726837 133.2870025635
0.5395125151 4006618.8523387909 134.2460021973
0.5902014971 4006618.7255287170 135.6690063477
0.4831092656 4006618.8042888641 133.8240051270
0.6596738100 4006618.2697925568 139.2010040283
0.3724429309 4006618.4950809479 133.2630004883
0.5655417442 4006618.2635364532 137.7350006104
0.3500854075 4006618.4360370636 133.2810058594
0.5442391038 4006618.1975727081 137.7420043945
0.5218815804 4006618.1385288239 137.7270050049
0.5713649988 4006618.0196285248 139.2030029297
0.5796534419 4006617.9652557373 139.1900024414
0.5583508015 4006617.8992919922 139.2250061035
0.6572635174 4006617.4561386108 143.2160034180
0.0569781102 4006617.8704071045 130.7500000000
0.0360432006 4006617.7953948975 130.8020019531
0.4348872900 4006617.4616889954 139.2160034180
0.0147405900 4006617.7294311523 130.8110046387
0.3419608176 4006617.4475231171 137.7200012207
-0.0064113401 4006617.6624794006 130.7570037842
-0.0289195497 4006617.6044235229 130.7790069580
0.0570870601 4006617.4516410828 133.2830047607
0.3467291594 4006617.2105350494 139.2050018311
0.0665811077 4006617.3893604279 133.3000030518
0.3242209256 4006617.1524810791 139.2070007324
0.3030689955 4006617.0855293274 139.1940002441
0.5913547873 4006616.8533210754 145.2640075684
0.5680087209 4006616.7941265106 145.2570037842
0.1888398975 4006617.0053997040 137.7550048828
0.5537889600 4006616.6816997528 145.2480010986
0.5326370597 4006616.6147480011 145.2510070801
0.4397105575 4006616.6005821228 143.7350006104
0.4173530340 4006616.5415382385 143.7230072021
0.3137269020 4006616.5975627899 141.6100006104
0.2925749719 4006616.5306091309 141.6040039063
0.1889488548 4006616.5866336823 139.4490051270
0.1665913314 4006616.5275897980 139.4080047607
0.0442244709 4006616.5008430481 137.6710052490
0.0535678193 4006616.4395523071 137.9450073242
0.4045018554 4006616.2077903748 145.2590026855
0.0312103108 4006616.3805084229 137.7640075684
0.3831992447 4006616.1418266296 145.2630004883
0.3608417213 4006616.0827827454 145.2440032959
0.2596267760 4006616.1229896545 143.3470001221
-0.0806076229 4006616.2845611572 136.4170074463
-0.1027481183 4006616.2174587250 136.4230041504
-0.2251149863 4006616.1907119751 134.6150054932
-0.0792390406 4006616.0632400513 137.7350006104
-0.1003909633 4006615.9962882996 137.7380065918
-0.1228991821 4006615.9382333755 137.7380065918
-0.1440511048 4006615.8712806702 137.7380065918
-0.1347077489 4006615.8099889755 137.7380065918
-0.1580538452 4006615.7507944107 137.7400054932
-0.4570932984 4006615.8478384018 132.1730041504
-0.1793564558 4006615.6848316193 137.7440032959
-0.4441331923 4006615.7628202438 133.1950073242
-0.5770490170 4006615.8052749634 130.7270050049
-0.2017139643 4006615.6257877350 137.7530059814
-0.5665000677 4006615.7360744476 130.9530029297
-0.2228658944 4006615.5588350296 137.7510070801
-0.5876519680 4006615.6691217422 131.0220031738
-0.2463626862 4006615.5006294250 137.7510070801
-0.6101601720 4006615.6110668182 130.6540069580
-0.5005904436 4006615.5094184875 133.0370025635
-0.6323006749 4006615.5439643860 130.6640014648
-0.5217424035 4006615.4424657822 133.0310058594
0.0479510687 4006615.2288789749 143.8560028076
-0.5430449843 4006615.3765020370 133.0160064697
0.0266484506 4006615.1629152298 143.8800048828
-0.5641969442 4006615.3095502853 132.9680023193
0.0042909398 4006615.1038722992 143.9190063477
-0.5875430107 4006615.2503557205 132.9510040283
-0.0180665702 4006615.0448284149 143.9470062256
-0.0087232199 4006614.9835367203 144.2310028076
-0.0308637209 4006614.9164333344 144.4100036621
-0.0533719398 4006614.8583784103 144.4080047607
-0.0120263305 4006614.7928609848 145.1990051270
-0.0333289504 4006614.7268972397 145.2790069580
-0.0556864589 4006614.6678543091 145.2790069580
-0.0473980010 4006614.6134824753 145.2740020752
-0.8571535349 4006614.7429304123 131.1360015869
-0.0699062198 4006614.5554265976 145.2660064697
-0.0932523087 4006614.4962329865 145.2420043945
-0.1156098321 4006614.4371891022 145.1970062256
-0.1381180435 4006614.3791341782 145.1690063477
-1.0006147623 4006611.5366954803 144.5850067139
-0.9923263192 4006611.4823236465 145.0890045166
-1.0759094954 4006611.4068651199 144.2380065918
-1.2899962664 4006610.5285720825 144.9400024414
-1.3123538494 4006610.4695291519 144.8800048828
-1.3336564302 4006610.4035654068 144.7010040283
-1.3864428997 4006610.3317909241 144.0820007324
0.5655408502 4006619.0930099487 132.3600006104
0.4923436940 4006619.1617641449 130.7610015869
0.5819670558 4006618.9852542877 133.2810058594
0.5973383784 4006618.8844184875 134.1710052490
0.5748301744 4006618.8263645172 134.0310058594
0.4937017262 4006617.4939212799 139.1450042725
0.4007752538 4006617.4797554016 137.7250061035
0.3794726133 4006617.4137916565 137.6920013428
0.1465474665 4006617.4885444641 133.2810058594
0.1253955364 4006617.4215908051 133.2960052490
-0.0251397900 4006617.3672847748 130.8070068359
0.3702382147 4006617.0563182831 139.2380065918
0.3478806913 4006616.9972743988 139.1560058594
-0.0675943270 4006617.2343692780 130.8390045166
0.6361665130 4006616.7650661469 145.2640075684
-0.0888969526 4006617.1684055328 130.8000030518
0.6138089895 4006616.7060222626 145.2610015869
0.2348571867 4006616.9092350006 137.7380065918
0.6219467521 4006616.6526393890 145.2550048828
0.5644885898 4006616.6115112305 144.5260009766
0.4620680511 4006616.6596260071 142.6540069580
0.5090739131 4006616.5636138916 143.9250030518
0.3830902874 4006616.5605926514 141.7850036621
0.2796148360 4006616.6156272888 139.6360015869
0.2583122253 4006616.5496635437 139.6170043945
-0.0829107314 4006616.7110862732 133.3220062256
-0.2182377279 4006616.7693576813 130.8070068359
0.1336848736 4006616.5377464294 137.5910034180
-0.2393896431 4006616.7024059296 130.8020019531
0.1442338228 4006616.4685459137 138.0800018311
0.0890361592 4006616.4125881195 137.7420043945
0.0677335411 4006616.3466243744 137.7290039063
-0.0026847301 4006616.3905143738 136.0200042725
0.0090698097 4006616.3134059906 136.5390014648
0.4280109107 4006616.0535717010 145.2870025635
-0.0122328103 4006616.2474422455 136.5440063477
0.4056534171 4006615.9945287704 145.2850036621
0.3360730112 4006616.0395565033 143.4570007324
0.0325788818 4006616.1591873169 137.7350006104
0.0112762600 4006616.0932235718 137.7380065918
-0.0110812504 4006616.0341796875 137.7270050049
-0.1464082450 4006616.0924510956 135.0090026855
-0.0322331786 4006615.9672279358 137.7200012207
-0.0557299703 4006615.9090223312 137.7120056152
-0.2876665592 4006615.9839248657 133.4940032959
-0.3110126257 4006615.9247303009 133.3240051270
-0.3676328957 4006615.8847408295 132.3450012207
-0.4877392948 4006615.8431663513 130.7920074463
-0.3759754002 4006615.7337598801 133.1430053711
-0.5088912249 4006615.7762145996 130.7640075684
-0.3981159031 4006615.6666564941 133.1360015869
-0.4983422458 4006615.7070131302 131.1190032959
-0.5947888494 4006615.5102319717 130.6730041504
-0.5723224282 4006615.1505098343 132.8710021973
-0.5628283620 4006615.0882291794 132.8580017090
0.1008464918 4006614.8818874359 145.2760009766
-0.5841309428 4006615.0222654343 132.8470001221
0.0784889832 4006614.8228445053 145.2760009766
-0.6064884663 4006614.9632215500 132.8320007324
0.0561314598 4006614.7638006210 145.2830047607
0.0336232483 4006614.7057456970 145.2890014648
-0.6499316096 4006614.8301553726 132.7590026855
0.0102771502 4006614.6465511322 145.2760009766
-0.0108747697 4006614.5795993805 145.2570037842
-0.0027370099 4006614.5262155533 145.2850036621
-0.0250945203 4006614.4671726227 145.2870025635
-0.1121437401 4006614.4144515991 144.2940063477
-0.1345012635 4006614.3554086685 144.3150024414
-0.0933063477 4006614.2908792496 145.2740020752
-0.0850178897 4006614.2365074158 145.2830047607
-0.1063205078 4006614.1705436707 145.2850036621
-0.1286780238 4006614.1115007401 145.2830047607
-0.1520241201 4006614.0523061752 145.2200012207
-0.1745323241 4006613.9942512512 145.0630035400
-0.1980954409 4006613.9431161880 144.9510040283
-0.2192473561 4006613.8761644363 144.9380035400
-0.9417340159 4006611.5618553162 144.5110015869
-0.9040051699 4006611.5200643539 145.1380004883
-0.9852434397 4006611.4358596802 144.2480010986
-1.0004518032 4006611.3232822418 144.2460021973
-1.0228092670 4006611.2642393112 144.2510070801
-1.0453175306 4006611.2061834335 144.2550048828
-1.0676749945 4006611.1471405029 144.2570037842
-1.0910210609 4006611.0879459381 144.2510070801
-1.1123237610 4006611.0219821930 144.2550048828
-1.1040352583 4006610.9676103592 144.2510070801
-1.2301269770 4006610.5538835526 144.2590026855
-1.1923981905 4006610.5120925903 145.0650024414
-1.2451846600 4006610.4403171539 144.6430053711
-1.2971332073 4006610.3696823120 144.1150054932
-1.3182851076 4006610.3027305603 144.0520019531
0.5878983736 4006619.1520519257 130.7760009766
0.5903112888 4006617.4772891998 139.1950073242
0.5679538250 4006617.4182472229 139.1710052490
0.4750273228 4006617.4040813446 137.6950073242
0.2429400235 4006617.4799728394 133.2700042725
0.2207995355 4006617.4128684998 133.2960052490
0.7774248123 4006616.8735942841 145.2530059814
0.7550672889 4006616.8145503998 145.2590026855
0.4454788566 4006616.9807929993 139.2290039063
0.7337646484 4006616.7485866547 145.2640075684
0.4221327603 4006616.9216003418 139.2100067139
0.7104185820 4006616.6893920898 145.2660064697
0.6880610585 4006616.6303482056 145.2680053711
0.6302351952 4006616.5982685089 144.3150024414
0.5586113334 4006616.6500663757 142.5290069580
0.6056835055 4006616.5469818115 144.0370025635
0.4796998799 4006616.5439624786 141.9140014648
0.3772130013 4006616.5991477966 139.7510070801
0.3538669348 4006616.5399532318 139.7200012207
0.0148381302 4006616.6936168671 133.3170013428
0.2641895115 4006616.5111103058 138.1600036621
-0.0064644902 4006616.6276531219 133.3070068359
-0.1417914927 4006616.6859245300 130.8000030518
0.2408434004 4006616.4519157410 138.1600036621
0.1866343319 4006616.3961086273 137.7420043945
0.1653317064 4006616.3301448822 137.7350006104
0.1066679731 4006616.2969245911 136.6130065918
0.0853653476 4006616.2309608459 136.6040039063
0.5020459890 4006615.9859571457 145.2740020752
0.1289714426 4006616.1506156921 137.7510070801
0.5115400553 4006615.9236764908 145.2790069580
-0.0488100909 4006616.0759716034 135.0720062256
0.0631708130 4006615.9585056305 137.7140045166
0.0420188904 4006615.8915529251 137.7070007324
-0.1922625601 4006615.9752025604 133.5460052490
-0.2146200687 4006615.9161586761 133.3070068359
-0.2700347304 4006615.8682603836 132.4060058594
-0.3899904191 4006615.8256978989 130.7870025635
-0.2804207206 4006615.7240486145 133.1390075684
-0.3794414699 4006615.7564973831 131.2070007324
-0.3017233312 4006615.6580848694 133.1340026855
-0.4993848801 4006615.5015096664 130.6600036621
-0.5205367804 4006615.4345569611 130.6560058594
0.2349556088 4006615.0439481735 145.2790069580
0.2114588171 4006614.9857425690 145.2790069580
0.1903069019 4006614.9187908173 145.2810058594
0.1985953450 4006614.8644189835 145.2760009766
0.1760871410 4006614.8063640594 145.2660064697
0.0879830271 4006614.7605638504 144.0890045166
-0.5616768003 4006614.8749666214 132.7460021973
0.0654748082 4006614.7025089264 144.1150054932
0.0431172997 4006614.6434650421 144.1130065918
-0.5746909380 4006614.7546310425 132.7180023193
0.0208260994 4006614.5773506165 144.1470031738
-0.5959935784 4006614.6886672974 132.7160034180
0.0291145500 4006614.5229787827 144.1940002441
-0.6181340814 4006614.6215648651 132.6920013428
0.0067570400 4006614.4639348984 144.2200012207
-0.6394367218 4006614.5556011200 132.6600036621
0.0491575487 4006614.3914976120 145.2960052490
0.0268000308 4006614.3324537277 145.3110046387
-0.6818912625 4006614.4226856232 132.4920043945
-0.8101353645 4006614.4344940186 130.7310028076
-0.0602491908 4006614.2797336578 144.2050018311
-0.8006412983 4006614.3722133636 130.7100067139
-0.0521114282 4006614.2263507843 144.2290039063
-0.0744689479 4006614.1673069000 144.3320007324
-0.8123835921 4006614.2368984222 131.4080047607
-0.0956208706 4006614.1003551483 144.4210052490
-0.8335354924 4006614.1699466705 131.4470062256
-0.0874831080 4006614.0469713211 144.4550018311
-0.1098406166 4006613.9879283905 144.4810028076
-0.0992916822 4006613.9187269211 145.2100067139
-0.1226377785 4006613.8595333099 145.2810058594
-0.1143493205 4006613.8051614761 145.2700042725
-0.1368575245 4006613.7471065521 145.2680053711
-0.1592150480 4006613.6880626678 145.2510070801
-0.2132071108 4006613.6241970062 144.8820037842
-0.2357153147 4006613.5661420822 144.8000030518
-0.8451907635 4006611.5522956848 144.4920043945
-0.8064070344 4006611.5035839081 145.1790008545
-0.8898394704 4006611.4271373749 144.2500000000
-0.9121969938 4006611.3680944443 144.2510070801
-1.0064370632 4006610.9511299133 144.2550048828
-1.0287946463 4006610.8920869827 144.2590026855
-1.0522913933 4006610.8338813782 144.2630004883
-1.0746489763 4006610.7748374939 144.2590026855
-1.0970064402 4006610.7157936096 144.2590026855
-1.1183090210 4006610.6498308182 144.2550048828
-1.1416552067 4006610.5906362534 144.2480010986
-1.1333667040 4006610.5362644196 144.2590026855
-1.0958548784 4006610.5025320053 145.0850067139
-1.1475864649 4006610.4238376617 144.6020050049
-1.2228811979 4006610.2940082550 144.1380004883
0.7175005674 4006617.4724006653 139.2070007324
0.6949923635 4006617.4143466949 139.2120056152
0.6255626678 4006617.4583854675 137.7180023193
0.6020658612 4006617.4001808167 137.7460021973
0.3701292574 4006617.4750843048 133.2760009766
0.3478380740 4006617.4089698792 133.2740020752
0.5491713285 4006616.9176998138 139.2070007324
0.7574244142 4006616.5933799744 144.3150024414
0.6550039053 4006616.6414947510 142.4680023193
0.7327220440 4006616.5430812836 144.0910034180
0.6444008946 4006616.5053405762 143.1380004883
0.4727677107 4006616.5894374847 139.8090057373
0.4514650702 4006616.5234737396 139.7850036621
0.1406710744 4006616.6976261139 133.2760009766
0.0053440798 4006616.7558975220 130.8070068359
0.3597441912 4006616.5013980865 138.2030029297
0.1207247525 4006616.6227645874 133.3370056152
0.3373866677 4006616.4423542023 138.1970062256
0.3136728704 4006616.3922080994 137.7330017090
0.2913153470 4006616.3331661224 137.7250061035
0.2030605376 4006616.2883529663 136.6390075684
0.2478722334 4006616.2000980377 137.7180023193
0.2255147249 4006616.1410560608 137.7310028076
0.6079326272 4006615.9151048660 145.2680053711
0.2042120993 4006616.0750923157 137.7590026855
0.0688851029 4006616.1333637238 135.1100006104
0.5845865011 4006615.8559103012 145.2740020752
0.4843601286 4006615.8962669373 143.5070037842
0.1595633775 4006615.9499340057 137.7100067139
0.1690574288 4006615.8876533508 137.7070007324
-0.0650733188 4006615.9703140259 133.5590057373
-0.0875815302 4006615.9122591019 133.3070068359
-0.1744800508 4006615.8585500717 132.4530029297
-0.2298947126 4006615.8106517792 131.5670013428
-0.2524029315 4006615.7525968552 131.2050018311
-0.1745340973 4006615.6531963348 133.1100006104
-0.2745434344 4006615.6854944229 131.2440032959
-0.1958367079 4006615.5872325897 133.1040039063
-0.3934982419 4006615.4306573868 130.6690063477
0.3537057042 4006615.0944204330 145.2720031738
0.3315652013 4006615.0273180008 145.2740020752
0.3398536444 4006614.9729461670 145.2660064697
0.3173454404 4006614.9148902893 145.2610015869
0.2949879169 4006614.8558473587 145.2510070801
0.2067331076 4006614.8110351563 144.0520019531
0.1843755841 4006614.7519922256 144.0610046387
0.1620180756 4006614.6929483414 144.0520019531
-0.4782983959 4006614.7460594177 132.7010040283
-0.5004388690 4006614.6789569855 132.6920013428
-0.5217415094 4006614.6129932404 132.6880035400
-0.5428934097 4006614.5460414886 132.6750030518
0.1126436591 4006614.3930835724 144.2720031738
-0.5641960502 4006614.4800777435 132.6450042725
0.1538385749 4006614.3285541534 145.2890014648
0.1314810663 4006614.2695102692 145.2960052490
-0.6076391935 4006614.3470106125 132.5520019531
-0.7052373290 4006614.3634910583 130.6840057373
0.0444318391 4006614.2167901993 144.2010040283
-0.6299966574 4006614.2879676819 132.5200042725
-0.7265399694 4006614.2975273132 130.7570037842
0.0219236203 4006614.1587352753 144.2010040283
-0.7158403397 4006614.2273387909 131.2960052490
0.0007717000 4006614.0917835236 144.2940063477
-0.7371429205 4006614.1613750458 131.3860015869
0.0090601603 4006614.0374116898 144.4290008545
-0.7276488543 4006614.0990943909 131.4880065918
-0.0132310400 4006613.9712972641 144.4640045166
-0.7477459311 4006614.0252218246 131.5160064697
-0.0355885588 4006613.9122533798 144.5050048828
-0.7710919976 4006613.9660282135 131.5240020752
-0.0273001008 4006613.8578815460 144.5420074463
-0.0498083085 4006613.7998266220 144.5720062256
-0.0403142609 4006613.7375459671 145.2070007324
-0.0616168790 4006613.6715822220 145.2810058594
-0.0545340218 4006613.6251192093 145.2790069580
-0.0766745210 4006613.5580158234 145.2830047607
-0.0991827399 4006613.4999608994 145.2740020752
-0.1215402484 4006613.4409179688 145.2830047607
-0.1438977569 4006613.3818740845 145.2640075684
-0.7169466019 4006611.5404872894 144.4600067139
-0.7098637223 4006611.4940233231 145.1860046387
-0.7615953088 4006611.4153289795 144.2350006104
-0.7839528322 4006611.3562850952 144.2330017090
-0.8063103557 4006611.2972421646 144.2440032959
-0.9770507813 4006610.7583570480 144.2530059814
-0.9687623382 4006610.7039852142 144.2550048828
-0.9911198020 4006610.6449422836 144.2640075684
-1.0146166086 4006610.5867357254 144.2660064697
-1.0357685089 4006610.5197839737 144.2740020752
-0.9992452860 4006610.4859008789 145.0930023193
-1.0510431528 4006610.4142770767 144.6020050049
-1.0956919193 4006610.2891197205 144.1640014648
0.7197610140 4006617.4575729370 137.7160034180
0.4644783735 4006617.4732818604 133.2590026855
0.7233237624 4006617.2284927368 139.1970062256
0.4431757629 4006617.4073181152 133.2890014648
0.5998062491 4006616.5855369568 140.0480041504
0.5102795362 4006616.5557041168 138.7570037842
0.4855771363 4006616.5054073334 138.3760070801
0.4303131700 4006616.4565200806 137.7480010986
0.4090105295 4006616.3905563354 137.7480010986
0.1712630093 4006616.4969444275 133.2740020752
0.3501960933 4006616.3583259583 136.8070068359
0.0454300605 4006616.4929351807 130.7830047607
0.3643618226 4006616.2653999329 137.7440032959
0.3432099223 4006616.1984462738 137.7380065918
0.2160206735 4006616.2033348083 135.2270050049
0.1948687434 4006616.1363830566 135.2270050049
0.3068496585 4006616.0189170837 137.7230072021
0.6868563294 4006615.8087844849 145.2160034180
0.2855470181 4006615.9529533386 137.7310028076
0.6657044291 4006615.7418317795 145.2890014648
0.6431962252 4006615.6837768555 145.2830047607
0.0065505500 4006615.9185161591 133.2890014648
-0.1263652593 4006615.9609708786 130.7420043945
-0.1476678848 4006615.8950071335 130.7920074463
-0.1359133422 4006615.8178977966 131.4270019531
-0.1580538452 4006615.7507944107 131.4140014648
0.5844784379 4006615.4452037811 145.2740020752
0.5609153509 4006615.3940687180 145.2740020752
-0.1017046198 4006615.5934896469 133.0630035400
0.5386241078 4006615.3279542923 145.2640075684
0.5162665844 4006615.2689113617 145.2570037842
0.4939090908 4006615.2098674774 145.2460021973
-0.2675146163 4006615.4336776733 130.7290039063
0.4044486880 4006615.1729640961 143.8970031738
-0.3194631934 4006615.3630418777 130.6410064697
0.3820911944 4006615.1139211655 143.9100036621
0.3903796375 4006615.0595493317 143.9060058594
0.3690769970 4006614.9935855865 143.9120025635
-0.5465102196 4006614.5697669983 130.7250061035
-0.4394179881 4006614.4910058975 132.6340026855
-0.5676621199 4006614.5028152466 130.6970062256
-0.4615584910 4006614.4239034653 132.6190032959
0.1621270329 4006614.2741823196 144.3540039063
-0.4828611314 4006614.3579397202 132.5590057373
0.2033219337 4006614.2096538544 145.2980041504
0.2116104066 4006614.1552820206 145.3130035400
-0.5253156424 4006614.2250242233 132.5070037842
-0.6229138374 4006614.2415037155 130.6560058594
0.1255497485 4006614.1027116776 144.2010040283
-0.5699643493 4006614.0998659134 132.4570007324
-0.5911163092 4006614.0329141617 132.4250030518
-0.6124188900 4006613.9669504166 132.4010009766
-0.6345593929 4006613.8998470306 132.4010009766
-0.6558620334 4006613.8338832855 132.3170013428
-0.7417056561 4006613.7732543945 131.1470031738
-0.7311567068 4006613.7040538788 131.6230010986
-0.7523086667 4006613.6371021271 131.7200012207
-0.7736112475 4006613.5711383820 131.7350006104
-0.7947632074 4006613.5041866302 131.7420043945
-0.1039084420 4006613.3252534866 144.2480010986
-0.0956199914 4006613.2708816528 144.7330017090
-0.1169226095 4006613.2049188614 144.8410034180
-0.1086341515 4006613.1505470276 144.9170074463
-0.1319802552 4006613.0913524628 145.1450042725
-0.1238424927 4006613.0379686356 145.2960052490
-0.1462000161 4006612.9789257050 145.2960052490
-0.1673519313 4006612.9119729996 145.3020019531
-0.1898601353 4006612.8539180756 145.2940063477
-0.2132062316 4006612.7947244644 145.2200012207
-0.2355637550 4006612.7356805801 145.0570068359
-0.2274259925 4006612.6822967529 145.3040008545
-0.2497835010 4006612.6232538223 145.3130035400
-0.2721410096 4006612.5642099380 145.3130035400
-0.2944322228 4006612.4980955124 145.3220062256
-0.3167897165 4006612.4390525818 145.3240051270
-0.6228145361 4006611.5467443466 144.4060058594
-0.5838801265 4006611.4970436096 145.2310028076
-0.6674632430 4006611.4215860367 144.1390075684
-0.7273865938 4006611.1909217834 144.2530059814
-0.7486892343 4006611.1249580383 144.2500000000
-0.8511211872 4006610.5560235977 145.1750030518
-0.9345536232 4006610.4795780182 144.6020050049
-0.9264158607 4006610.4261941910 144.5440063477
0.5030450821 4006617.4326286316 133.2850036621
0.7492440343 4006617.0584583282 139.1880035400
0.6608811617 4006616.6029396057 140.1230010986
0.6385236382 4006616.5438957214 140.1080017090
0.5468027592 4006616.5218219757 138.4680023193
0.5242945552 4006616.4637660980 138.3970031738
0.4678912759 4006616.4157180786 137.7460021973
0.4467393756 4006616.3487663269 137.7420043945
0.2396378070 4006616.4598236084 133.2920074463
0.4254367352 4006616.2828025818 137.7420043945
0.4337252080 4006616.2284297943 137.7440032959
0.3325102627 4006616.2686367035 135.7700042725
0.2549550831 4006616.1536350250 135.2640075684
0.1983348280 4006616.1136455536 134.3560028076
0.3454163671 4006615.9782648087 137.7010040283
0.3232758641 4006615.9111623764 137.7070007324
0.1219852492 4006615.9907369614 133.6920013428
0.7034332752 4006615.7000408173 145.2700042725
0.0678424910 4006615.9278593063 133.4510040283
0.6809250116 4006615.6419858932 145.2740020752
0.6892135143 4006615.5876140594 145.2660064697
-0.0439754315 4006615.8319129944 131.8280029297
0.6668559909 4006615.5285701752 145.2700042725
-0.0663329512 4006615.7728691101 131.4660034180
0.6433591843 4006615.4703645706 145.2660064697
-0.0886904597 4006615.7138252258 131.4270019531
0.6210016608 4006615.4113206863 145.2610015869
0.5998497605 4006615.3443689346 145.2550048828
-0.0639757887 4006615.5516986847 133.0440063477
0.5091837645 4006615.3153743744 143.8320007324
-0.0852784067 4006615.4857349396 133.0700073242
0.4868262410 4006615.2563304901 143.8450012207
0.4655236304 4006615.1903667450 143.8560028076
0.4738120735 4006615.1359949112 143.8630065918
-0.2510884106 4006615.3259220123 130.6540069580
0.4504659772 4006615.0768013000 143.8600006104
-0.4769298136 4006614.5247383118 130.7120056152
-0.4004835784 4006614.4413061142 132.6230010986
-0.4982324541 4006614.4587745667 130.6840057373
-0.4229917824 4006614.3832511902 132.6000061035
0.2079936117 4006614.1790075302 144.3780059814
-0.4664348960 4006614.2501840591 132.5160064697
0.2503277957 4006614.1136407852 145.2980041504
0.2268310040 4006614.0554351807 145.3040008545
-0.6064876318 4006614.1337490082 130.6920013428
0.1419759691 4006613.9949569702 144.2120056152
-0.5310299397 4006614.0501661301 132.4320068359
-0.5523325801 4006613.9842023849 132.3970031738
-0.5746901035 4006613.9251585007 132.3820037842
-0.5958420038 4006613.8582067490 132.3650054932
-0.6181331873 4006613.7920923233 132.3520050049
-0.6392851472 4006613.7251396179 132.3240051270
-0.6605877280 4006613.6591758728 132.2610015869
-0.7464313507 4006613.5985469818 131.0820007324
-0.7358824015 4006613.5293464661 131.7660064697
-0.7263883948 4006613.4670658112 131.7790069580
-0.7476909757 4006613.4011030197 131.7830047607
-0.1027568802 4006613.1119918823 144.2220001221
-0.1248973906 4006613.0448894501 144.2350006104
-0.1167596281 4006612.9915056229 144.8730010986
-0.1084711701 4006612.9371337891 144.9770050049
-0.1308286935 4006612.8780899048 145.0980072021
-0.1214853376 4006612.8167982101 145.2830047607
-0.1438428462 4006612.7577552795 145.2980041504
-0.1662003696 4006612.6987113953 145.3090057373
-0.1896971613 4006612.6405057907 145.3190002441
-0.2120546699 4006612.5814619064 145.3170013428
-0.2027113140 4006612.5201702118 145.3200073242
-0.2262744308 4006612.4690351486 145.3200073242
-0.2474263459 4006612.4020833969 145.3240051270
-0.2709231377 4006612.3438768387 145.3200073242
-0.2932806611 4006612.2848339081 145.2420043945
-0.5627281666 4006611.5639963150 144.3470001221
-0.5237937570 4006611.5142955780 145.1380004883
-0.5463019609 4006611.4562406540 145.2420043945
-0.6876143217 4006611.1423606873 144.2400054932
-0.7109603882 4006611.0831661224 144.2570037842
-0.8499155641 4006610.5481157303 144.2530059814
-0.8133923411 4006610.5142326355 145.1920013428
-0.8651239276 4006610.4355382919 144.5130004883
0.5620765090 4006617.4568004608 133.2850036621
0.5395683050 4006617.3987464905 133.2180023193
0.6986100078 4006616.5611476898 140.1040039063
0.6762524843 4006616.5021038055 140.0180053711
0.5833259821 4006616.4879379272 138.4010009766
0.5267057419 4006616.4479484558 137.4210052490
0.5056201220 4006616.3739261627 137.7380065918
0.4479449689 4006616.3408565521 136.8300018311
0.2455150783 4006616.4212684631 133.2940063477
0.1418226361 4006616.4843635559 130.7680053711
0.4619599879 4006616.2489185333 137.7350006104
0.4714540541 4006616.1866378784 137.7420043945
0.3137695193 4006616.1858673096 135.2380065918
0.2926839292 4006616.1118431091 135.2290039063
0.2360636592 4006616.0718536377 134.3480072021
0.3831451833 4006615.9364738464 137.7050018311
0.7633025646 4006615.7253522873 145.2760009766
0.3619932830 4006615.8695211411 137.7070007324
0.1585084945 4006615.9568538666 133.6860046387
0.7399564981 4006615.6661577225 145.2810058594
0.7186538577 4006615.6001939774 145.2760009766
-0.0509075895 4006615.8773870468 130.7810058594
-0.0391530618 4006615.8002777100 131.3950042725
0.7045848370 4006615.4867782593 145.2680053711
-0.0604556799 4006615.7343149185 131.4340057373
0.6820765734 4006615.4287233353 145.2660064697
0.6587305069 4006615.3695297241 145.2680053711
0.6363729835 4006615.3104858398 145.2630004883
-0.0262469593 4006615.5099067688 133.0740051270
0.5469125509 4006615.2735824585 143.8390045166
0.5245550871 4006615.2145395279 143.8540039063
0.5020468235 4006615.1564846039 143.8520050049
0.5115408897 4006615.0942039490 143.8580017090
0.4891833961 4006615.0351600647 143.8450012207
-0.4477064610 4006614.5453777313 130.7400054932
-0.3428083956 4006614.4743757248 132.6150054932
-0.4710525572 4006614.4861841202 130.6970062256
-0.3639603257 4006614.4074230194 132.6080017090
-0.3852629364 4006614.3414592743 132.6000061035
0.2690685391 4006614.1964101791 144.3450012207
-0.4064148664 4006614.2745075226 132.5130004883
0.3104141355 4006614.1308927536 145.2870025635
0.2879059315 4006614.0728378296 145.3020019531
-0.4498580098 4006614.1414403915 132.4120025635
-0.5464012623 4006614.1510009766 130.6860046387
0.2010074258 4006614.0191287994 144.1900024414
-0.4723662138 4006614.0833854675 132.4320068359
-0.4923125505 4006614.0085248947 132.4420013428
-0.5158093572 4006613.9503192902 132.4060058594
-0.5369612575 4006613.8833675385 132.3970031738
-0.5582638979 4006613.8174037933 132.3710021973
-0.5794157982 4006613.7504510880 132.3350067139
-0.6652594209 4006613.6898221970 131.0930023193
-0.6547104716 4006613.6206216812 131.6040039063
-0.6758623719 4006613.5536699295 131.7550048828
-0.6981536150 4006613.4875555038 131.7660064697
-0.7193055153 4006613.4206027985 131.7760009766
-0.0426705405 4006613.1292438507 144.2270050049
-0.0650280491 4006613.0701999664 144.2510070801
-0.0556847006 4006613.0089082718 144.8930053711
-0.0473962501 4006612.9545364380 144.9810028076
-0.0697537586 4006612.8954925537 145.1670074463
-0.0930998623 4006612.8362989426 145.2870025635
-0.0837565064 4006612.7750072479 145.2940063477
-0.1061140224 4006612.7159633636 145.3020019531
-0.1286222339 4006612.6579084396 145.3020019531
-0.1509797573 4006612.5988645554 145.3110046387
-0.1743258387 4006612.5396709442 145.3110046387
-0.1661880910 4006612.4862871170 145.3130035400
-0.1885455996 4006612.4272432327 145.3150024414
-0.2096975148 4006612.3602914810 145.3150024414
-0.2322057337 4006612.3022365570 145.3170013428
-0.5249993205 4006611.5222043991 144.3890075684
-0.4862819314 4006611.4805631638 145.2420043945
-0.5686594844 4006611.3971977234 144.2500000000
-0.6498854756 4006611.1005687714 144.2480010986
-0.6722429991 4006611.0415258408 144.2460021973
-0.8121867180 4006610.5063238144 144.2680053711
-0.7756634951 4006610.4724407196 145.1260070801
-0.8264064789 4006610.3938970566 144.5010070801
0.5927224755 4006617.4614734650 133.2960052490
0.7480384707 4006617.0663661957 137.7070007324
0.7267358303 4006617.0004024506 137.7270050049
0.7844536304 4006616.6217765808 140.2610015869
0.7620961070 4006616.5627326965 140.2290039063
0.6608811617 4006616.6029396057 138.6560058594
0.6032723188 4006616.5627994537 137.7330017090
0.6151775718 4006616.4847011566 138.4440002441
0.5597628951 4006616.4368038177 137.7480010986
0.5384602547 4006616.3708400726 137.7500000000
0.5467486978 4006616.3164672852 137.7480010986
0.5244575143 4006616.2503528595 137.7460021973
0.4231762588 4006616.2976303101 135.7590026855
0.4008850753 4006616.2315158844 135.7100067139
0.1314366758 4006616.3401508331 130.8240051270
0.3454703987 4006616.1836185455 135.2940063477
0.3243184686 4006616.1166667938 135.2830047607
0.4362993836 4006615.9991998672 137.7070007324
0.4149967730 4006615.9332361221 137.7160034180
0.1585084945 4006615.9568538666 133.4490051270
0.1360002756 4006615.8987989426 133.2660064697
0.7575882673 4006615.5504941940 145.2810058594
0.0241823606 4006615.8028516769 131.5480041504
0.6691164970 4006615.5137414932 143.7180023193
0.0030304401 4006615.7358999252 131.5180053711
0.6457703710 4006615.4545469284 143.7530059814
0.6234128475 4006615.3955039978 143.7760009766
0.6009046435 4006615.3374490738 143.7790069580
0.0056046001 4006615.5066699982 133.0500030518
0.5785471201 4006615.2784051895 143.7850036621
-0.0169036109 4006615.4486150742 133.0440063477
-0.1392704844 4006615.4218692780 130.6920013428
-0.1604223996 4006615.3549165726 130.6920013428
-0.3957578540 4006614.6160135269 130.7160034180
-0.2886656523 4006614.5372524261 132.6470031738
-0.4170604944 4006614.5500497818 130.6900024414
-0.3099682629 4006614.4712886810 132.6320037842
-0.3757688999 4006614.2791786194 132.4850006104
0.3092085719 4006614.1388015747 144.4120025635
-0.3970715404 4006614.2132148743 132.5010070801
0.2868510485 4006614.0797576904 144.4230041504
0.2973999977 4006614.0105571747 145.3040008545
0.2409967333 4006613.9625082016 144.2100067139
-0.5051096678 4006613.8801298141 132.3370056152
-0.5276178718 4006613.8220748901 132.3200073242
-0.5487698317 4006613.7551231384 132.3070068359
-0.5700724125 4006613.6891593933 132.2830047607
-0.5922129154 4006613.6220560074 132.2740020752
-0.6135155559 4006613.5560932159 132.2460021973
-0.6346674562 4006613.4891405106 132.2140045166
-0.6570249796 4006613.4300966263 131.9980010986
-0.6793161631 4006613.3639831543 131.8520050049
-0.7004681230 4006613.2970304489 131.8690032959
-0.7205651402 4006613.2231578827 131.8760070801
0.0125271203 4006613.1852016449 144.1970062256
-0.0108189797 4006613.1260070801 144.2070007324
-0.0331764892 4006613.0669631958 144.2050018311
-0.8476577401 4006613.0217046738 130.8190002441
-0.0556847006 4006613.0089082718 144.2160034180
-0.0780422166 4006612.9498653412 144.2180023193
-0.0685481727 4006612.8875846863 144.2180023193
-0.0604104102 4006612.8342008591 145.0440063477
-0.0521219596 4006612.7798290253 145.0650024414
-0.0754680485 4006612.7206344604 145.0800018311
-0.0967706665 4006612.6546716690 145.3110046387
-0.0884822235 4006612.6002998352 145.3200073242
-0.1108397320 4006612.5412559509 145.3200073242
-0.1333479434 4006612.4832010269 145.3240051270
-0.1566940397 4006612.4240064621 145.3300018311
-0.1790515482 4006612.3649635315 145.3280029297
-0.2003541738 4006612.2989997864 145.3240051270
-0.1932713091 4006612.2525358200 145.3220062256
-0.2144232243 4006612.1855840683 145.3200073242
-0.2379200161 4006612.1273784637 145.3220062256
-0.4698016942 4006611.5781621933 144.2850036621
-0.4014268816 4006611.5410413742 145.2660064697
-0.4237844050 4006611.4819984436 145.2640075684
-0.6109510660 4006611.0508689880 144.2480010986
-0.6321029663 4006610.9839162827 144.2460021973
-0.7204658389 4006610.5283985138 145.2270050049
-0.7732523084 4006610.4566240311 144.4960021973
-0.8627667427 4006610.2143669128 144.3630065918
0.7798359990 4006616.8577766418 137.6970062256
0.7584793568 4006616.5864582062 138.6040039063
0.7363388538 4006616.5193557739 138.5780029297
0.6490725875 4006616.4746952057 137.7350006104
0.6573610306 4006616.4203224182 137.7350006104
0.6350698471 4006616.3542098999 137.7330017090
0.6127123237 4006616.2951660156 137.7350006104
0.5915604234 4006616.2282123566 137.7330017090
0.4891398847 4006616.2763290405 135.7270050049
0.4667823613 4006616.2172851563 135.6970062256
0.3325102627 4006616.2686367035 133.3020019531
0.1971832663 4006616.3269081116 130.7960052490
0.4126395881 4006616.1544075012 135.3670043945
0.3561700284 4006616.1134300232 134.2700042725
0.2254606783 4006615.9357013702 133.2740020752
0.2031694800 4006615.8695878983 133.2760009766
0.7797287703 4006615.6175966263 143.6750030518
0.7563827038 4006615.5584020615 143.6770019531
0.0572395101 4006615.7917060852 130.7570037842
0.7352308035 4006615.4914503098 143.7030029297
0.7127225995 4006615.4333953857 143.7180023193
0.6903650761 4006615.3743515015 143.7160034180
0.1032027677 4006615.4901895523 133.0240020752
0.0819001496 4006615.4242258072 133.0240020752
-0.0932531878 4006615.3257055283 130.6710052490
-0.1145558134 4006615.2597417831 130.6750030518
-0.1993559450 4006614.5751438141 132.7160034180
-0.2981596887 4006614.5995330811 130.7100067139
-0.2227020413 4006614.5159502029 132.6540069580
-0.3299023211 4006614.1840038300 132.4830017090
0.3528146744 4006614.0584554672 144.4400024414
-0.3522598445 4006614.1249608994 132.4770050049
-0.4486523867 4006614.1335325241 130.6900024414
0.3315120339 4006613.9924917221 144.4570007324
0.3716520667 4006613.9348831177 145.3070068359
0.3492945433 4006613.8758392334 145.3200073242
-0.5039581060 4006613.6668682098 132.2550048828
-0.4946147799 4006613.6055765152 132.2420043945
-0.5157666802 4006613.5386238098 132.2250061035
-0.5370693207 4006613.4726600647 132.2030029297
-0.5592098236 4006613.4055576324 132.1790008545
-0.5805124640 4006613.3395938873 132.1670074463
-0.6016643643 4006613.2726421356 132.1510009766
0.1009989530 4006613.2219533920 144.2030029297
-0.6546015143 4006613.2018556595 131.9230041504
0.0786414295 4006613.1629104614 144.2010040283
-0.6757534742 4006613.1349039078 131.9340057373
0.0561332218 4006613.1048545837 144.1970062256
-0.6664100885 4006613.0736112595 131.9420013428
-0.6887676120 4006613.0145683289 131.9490051270
-0.7723507285 4006612.9391107559 130.8560028076
0.0514075086 4006612.9301481247 145.0070037842
-0.7935026884 4006612.8721580505 130.8800048828
0.0280614197 4006612.8709535599 144.9140014648
0.0363498703 4006612.8165817261 145.0200042725
0.0150472503 4006612.7506179810 145.1750030518
0.0233357102 4006612.6962461472 145.3110046387
0.0008274900 4006612.6381912231 145.3150024414
-0.0215300191 4006612.5791473389 145.3200073242
-0.0448761210 4006612.5199537277 145.3200073242
-0.0672336295 4006612.4609098434 145.3220062256
-0.0897418410 4006612.4028549194 145.3200073242
-0.0802477896 4006612.3405742645 145.3170013428
-0.1650365293 4006612.2730255127 144.2380065918
-0.1873940378 4006612.2139816284 144.2440032959
-0.1484596133 4006612.1642818451 145.3070068359
-0.1709678322 4006612.1062259674 145.3190002441
-0.1933253407 4006612.0471830368 145.3220062256
-0.1850368828 4006611.9928112030 145.3260040283
-0.2083829790 4006611.9336166382 145.3240051270
-0.2308911830 4006611.8755617142 145.3260040283
-0.2520430982 4006611.8086099625 145.3200073242
-0.3722035289 4006611.5616817474 144.3280029297
-0.3344746828 4006611.5198898315 145.3200073242
-0.3568322062 4006611.4608459473 145.3200073242
-0.5661393404 4006610.9626140594 144.2510070801
-0.5886475444 4006610.9045591354 144.2590026855
-0.6910254955 4006610.5409784317 144.1790008545
-0.6238562465 4006610.5117673874 145.2510070801
-0.7063001394 4006610.4354715347 144.4600067139
-0.7651686072 4006610.1978874207 144.4790039063
0.7480933666 4006616.4422473907 137.7350006104
0.7257358432 4006616.3832035065 137.7330017090
0.7044332027 4006616.3172397614 137.7310028076
0.7139272690 4006616.2549591064 137.7290039063
0.5903548002 4006616.2361221313 135.6940002441
0.5351571441 4006616.1801643372 135.3910064697
0.4337252080 4006616.2284297943 133.2890014648
0.2983981967 4006616.2867012024 130.8000030518
0.5138545632 4006616.1142005920 135.3780059814
0.6032609344 4006615.9457511902 137.7030029297
0.5809696913 4006615.8796367645 137.7140045166
0.3796791136 4006615.9592103958 133.8110046387
0.3244814575 4006615.9032535553 133.2810058594
0.3031788468 4006615.8372898102 133.2850036621
0.1725661457 4006615.4532203674 132.9980010986
0.1819095016 4006615.3919286728 133.0110015869
0.0066054598 4006615.2943964005 130.6730041504
-0.0145464595 4006615.2274446487 130.6730041504
-0.0780439675 4006614.6088104248 132.6840057373
-0.2064388096 4006614.6216077805 130.7510070801
-0.1003351733 4006614.5426959991 132.6790008545
-0.2297849059 4006614.5624132156 130.6950073242
-0.2298929691 4006614.1517066956 132.4770050049
-0.2510448992 4006614.0847539902 132.4720001221
-0.3475881517 4006614.0943145752 130.6990051270
0.4315213859 4006613.9601936340 144.4570007324
-0.3687400818 4006614.0273618698 130.6730041504
0.4728670120 4006613.8946762085 145.3020019531
0.4503587782 4006613.8366212845 145.3130035400
-0.4463370144 4006613.4945840836 132.1880035400
-0.4674889147 4006613.4276313782 132.1820068359
-0.4887915254 4006613.3616685867 132.1690063477
-0.5099434853 4006613.2947158813 132.1510009766
0.2233658135 4006613.2486991882 144.1900024414
-0.5322346687 4006613.2286014557 132.1190032959
0.2010083050 4006613.1896562576 144.1900024414
-0.5533865690 4006613.1616497040 132.0480041504
0.1797056794 4006613.1236925125 144.1880035400
-0.5746892095 4006613.0956859589 131.9700012207
-0.5958411098 4006613.0287332535 131.9550018311
-0.5864977837 4006612.9674415588 131.9750061035
0.1749799699 4006612.9489850998 144.9640045166
-0.7017818093 4006612.8942327499 130.8480072021
0.1516338736 4006612.8897905350 144.9790039063
-0.7239222527 4006612.8271293640 130.8020019531
0.1292763650 4006612.8307476044 145.0930023193
-0.7157845497 4006612.7737464905 130.8560028076
0.1374141127 4006612.7773637772 145.2960052490
0.1150565967 4006612.7183208466 145.2940063477
0.0926990882 4006612.6592769623 145.2920074463
0.0704078898 4006612.5931625366 145.2960052490
0.0786963403 4006612.5387907028 145.3110046387
0.0563388318 4006612.4797468185 145.3200073242
0.0338306203 4006612.4216918945 145.3300018311
0.0114730997 4006612.3626489639 145.3350067139
-0.0731649324 4006612.2941112518 144.2120056152
-0.0956731364 4006612.2360563278 144.2230072021
-0.0861791000 4006612.1737756729 144.2290039063
-0.1096758917 4006612.1155700684 144.2330017090
-0.1320333928 4006612.0565261841 144.2400054932
-0.0930989832 4006612.0068264008 145.0160064697
-0.1154564917 4006611.9477825165 145.3040008545
-0.1073187366 4006611.8943996429 145.3200073242
-0.1296762526 4006611.8353557587 145.3220062256
-0.1520337611 4006611.7763118744 145.3240051270
-0.1743249595 4006611.7101974487 145.3200073242
-0.1978880763 4006611.6590623856 145.3190002441
-0.2109022439 4006611.5387277603 145.3150024414
-0.2332597524 4006611.4796838760 145.3200073242
-0.2566058338 4006611.4204893112 145.3150024414
-0.4650751054 4006610.9233961105 144.2230072021
-0.4874326289 4006610.8643531799 144.2460021973
-0.5910161138 4006610.5086812973 144.2640075684
-0.5226413012 4006610.4715614319 145.2570037842
-0.6062244773 4006610.3961038589 144.4290008545
-0.6722421050 4006610.2120523453 144.5030059814
-0.6639536619 4006610.1576805115 144.4980010986
0.7539166212 4006616.1983394623 137.7310028076
0.6504411697 4006616.2533740997 135.6250000000
0.7327646613 4006616.1313877106 137.7310028076
0.6291385293 4006616.1874103546 135.4770050049
0.7409024239 4006616.0780029297 137.7230072021
0.6067810655 4006616.1283664703 135.4830017090
0.5174713135 4006616.0904750824 134.1770019531
0.4397654533 4006615.9764633179 133.3240051270
0.4186135530 4006615.9095106125 133.2980041504
0.3961053193 4006615.8514556885 133.2420043945
0.3067956269 4006615.8135643005 131.7660064697
0.2854929864 4006615.7476005554 131.7680053711
0.1972381771 4006615.7027883530 130.7610015869
0.2444070280 4006615.3933629990 132.9700012207
0.2220495045 4006615.3343200684 132.9900054932
0.0688859820 4006615.3038902283 130.6660003662
0.0479510687 4006615.2288789749 130.6790008545
0.0360344388 4006614.6899280548 132.7250061035
0.0138939396 4006614.6228256226 132.7160034180
-0.1145009026 4006614.6356229782 130.7140045166
-0.1591069847 4006614.0987691879 132.4400024414
-0.1804095954 4006614.0328054428 132.4380035400
-0.2768021822 4006614.0413770676 130.6790008545
-0.2981047928 4006613.9754133224 130.7250061035
0.4797991514 4006613.8492021561 144.5160064697
0.5199391842 4006613.7915925980 145.3000030518
0.4986365736 4006613.7256298065 145.3070068359
0.3538581431 4006613.4344863892 144.1920013428
0.3305120468 4006613.3752918243 144.1920013428
0.3080038428 4006613.3172369003 144.1860046387
0.3174978793 4006613.2549562454 144.8150024414
0.3257863522 4006613.2005844116 144.8300018311
0.3044837415 4006613.1346216202 144.9140014648
0.3127721846 4006613.0802497864 145.2810058594
0.2904146612 4006613.0212059021 145.2960052490
0.2669178843 4006612.9630002975 145.2960052490
-0.5475633740 4006612.9177417755 131.9850006104
0.2445603609 4006612.9039564133 145.2960052490
-0.5687152743 4006612.8507890701 131.9570007324
-0.5898008943 4006612.7767667770 131.9250030518
-0.6121584177 4006612.7177228928 131.9010009766
0.1457025707 4006612.7229919434 144.2140045166
0.1233450621 4006612.6639480591 144.2140045166
-0.7168934345 4006612.5753126144 130.7870025635
-0.7075501084 4006612.5140209198 131.0180053711
-0.7287020087 4006612.4470691681 131.0370025635
0.1186193526 4006612.4892416000 145.2960052490
-0.7500046492 4006612.3811054230 130.9940032959
0.1267571002 4006612.4358577728 145.3020019531
0.1034110114 4006612.3766632080 145.2960052490
0.0821083933 4006612.3107004166 145.3190002441
-0.1426904052 4006611.7150201797 144.2550048828
-0.1648309082 4006611.6479167938 144.2510070801
-0.1873391271 4006611.5898618698 144.2610015869
-0.1496102959 4006611.5480709076 145.3430023193
-0.1707622260 4006611.4811182022 145.3370056152
-0.1636793613 4006611.4346551895 145.3430023193
-0.1849819869 4006611.3686914444 145.3430023193
-0.2073394954 4006611.3096485138 145.3430023193
-0.2308362871 4006611.2514419556 145.3320007324
-0.2531937957 4006611.1923990250 145.3200073242
-0.2755513191 4006611.1333551407 145.3070068359
-0.2674135566 4006611.0799722672 145.3020019531
-0.3202000260 4006611.0081977844 144.8200073242
-0.4391548336 4006610.7533607483 144.2590026855
-0.4615123570 4006610.6943168640 144.2570037842
-0.4392088652 4006610.5480070114 145.3020019531
-0.4615663886 4006610.4889640808 145.3240051270
-0.5427383184 4006610.3976888657 144.3860015869
-0.4755691290 4006610.3684778214 145.3580017090
-0.4979266524 4006610.3094339371 145.2590026855
-0.5202841759 4006610.2503900528 145.1840057373
-0.5732213259 4006610.1796045303 144.7610015869
0.7386959791 4006616.2981853485 135.5290069580
0.6962414384 4006616.1652698517 135.5500030518
0.7633566260 4006615.9307050705 137.7180023193
0.7420539856 4006615.8647413254 137.6880035400
0.5397748351 4006615.9441652298 133.9060058594
0.4843601286 4006615.8962669373 133.2760009766
0.3973109126 4006615.8435468674 132.3450012207
0.3421132565 4006615.7875900269 131.8150024414
0.3208106458 4006615.7216262817 131.8040008545
0.2643410861 4006615.6806478500 130.7380065918
0.2880131304 4006615.3130168915 132.9830017090
0.2667105198 4006615.2470531464 132.9730072021
0.1149032712 4006615.2077274323 130.6730041504
0.0925457478 4006615.1486835480 130.6690063477
0.0938602909 4006614.7220087051 132.7510070801
0.0725576729 4006614.6560449600 132.7350006104
-0.0262460802 4006614.6804342270 130.6900024414
-0.0473980010 4006614.6134824753 130.6820068359
-0.1134574115 4006614.0116539001 132.4380035400
-0.2626364529 4006613.9484510422 130.6860046387
0.5246108770 4006613.7609472275 144.5500030518
0.5645338893 4006613.7113971710 145.2960052490
0.5422426462 4006613.6452836990 145.3110046387
0.4116840065 4006613.4665670395 144.1970062256
0.4198217690 4006613.4131841660 144.2030029297
0.3974642456 4006613.3541402817 144.1990051270
0.4069583118 4006613.2918596268 144.8020019531
0.3844500780 4006613.2338047028 144.8220062256
0.3939441442 4006613.1715240479 145.2740020752
0.3704473376 4006613.1133184433 145.2890014648
-0.5109860897 4006613.0892124176 130.6770019531
0.3787358105 4006613.0589466095 145.2830047607
-0.5310831070 4006613.0153398514 130.7310028076
0.3563782871 4006612.9999027252 145.2830047607
-0.4815997183 4006612.8964385986 131.9660034180
-0.5027516484 4006612.8294868469 131.9570007324
