1.3042538166 1628381.4459762573 193.3450012207
1.2958754301 1628381.3833999634 193.3240051270
1.2835999727 1628381.3278808594 194.1900024414
1.2633476257 1628381.2950210571 192.7290039063
1.2778191566 1628381.2588043213 194.1560058594
1.2605353594 1628381.2185134888 192.6060028076
1.2694408894 1628381.1962280273 194.1360015869
1.2521569729 1628381.1559371948 192.4080047607
1.2636599541 1628381.1271514893 194.0420074463
1.2454475164 1628381.0864868164 192.2530059814
1.2573215961 1628381.0567779541 194.0180053711
1.2485722303 1628380.9951248169 193.9790039063
1.2401938438 1628380.9325485229 193.9530029297
1.2347841263 1628380.8625488281 193.8500061035
1.2280745506 1628380.7930984497 193.8280029297
1.2484830618 1628380.7420272827 193.7460021973
1.2427022457 1628380.6729507446 193.6770019531
1.2372924089 1628380.6029434204 193.6020050049
1.2285430431 1628380.5412979126 193.5310058594
1.2222046852 1628380.4709167480 193.4730072021
1.2164237499 1628380.4018402100 193.3760070801
1.2080454826 1628380.3392639160 193.3580017090
1.2026356459 1628380.2692565918 193.2610015869
1.1648542881 1628380.0269393921 189.8150024414
1.1551762819 1628379.9649200439 189.8070068359
1.1181672812 1628379.8069076538 189.4850006104
1.1415443420 1628379.7484054565 189.4850006104
1.1325496435 1628379.5175933838 192.3840026855
1.0886750221 1628379.3740615845 188.4010009766
1.1267688274 1628379.4485168457 192.3840026855
1.1116811037 1628379.3164901733 192.2680053711
1.1062712669 1628379.2464828491 192.2810058594
1.0709310770 1628379.0815963745 187.9420013428
1.0277398825 1628378.7692718506 186.9790039063
1.0219589472 1628378.7001953125 186.9810028076
1.0157767534 1628378.5458908081 186.6280059814
1.0099959373 1628378.4768142700 186.6430053711
1.0475320816 1628378.5499649048 191.3710021973
1.0387827158 1628378.4883117676 191.3710021973
0.9781514406 1628378.2196350098 187.0980072021
0.9723706245 1628378.1505584717 187.0930023193
1.0242221355 1628378.2714233398 191.1230010986
1.0154727697 1628378.2097778320 191.1340026855
0.9430345893 1628377.6337814331 187.6300048828
0.9376247525 1628377.5637741089 187.6580047607
0.9664115906 1628377.5752716064 190.3630065918
0.9606307149 1628377.5061950684 190.3470001221
0.9054092765 1628377.3075256348 186.6670074463
0.8990708590 1628377.2371444702 186.6730041504
0.9191083312 1628377.1870040894 188.1730041504
0.9105738401 1628377.2083587646 190.0350036621
0.9136985540 1628377.1169967651 188.1540069580
0.9051640630 1628377.1383590698 190.0420074463
0.8698909879 1628376.6364364624 189.4010009766
0.8468263149 1628376.5270690918 188.7810058594
0.8558880091 1628376.4208450317 189.0910034180
0.8149818778 1628376.2698898315 186.6470031738
0.8491784930 1628376.3514022827 189.1040039063
0.8408001661 1628376.2888259888 189.0930023193
0.8296095133 1628376.1497421265 189.0870056152
0.8176463842 1628375.9263534546 188.7420043945
0.7977651358 1628375.8925628662 189.4550018311
0.7623358965 1628375.4745788574 188.1560058594
0.7565550208 1628375.4055023193 188.1600036621
0.7624920607 1628375.3906402588 189.9550018311
0.7567111850 1628375.3215637207 189.9490051270
0.7066543102 1628375.0237274170 186.6660003662
0.7270628214 1628374.9726562500 186.6690063477
0.7242504954 1628374.8961486816 186.6770019531
0.7242504954 1628374.8961486816 187.6300048828
0.7158721685 1628374.8335723877 187.6390075684
0.7326288223 1628374.9587249756 190.4750061035
0.7272189856 1628374.8887176514 190.4640045166
0.6782469153 1628374.5073165894 187.1170043945
0.6689399481 1628374.4443740845 187.1190032959
0.6889774203 1628374.3942260742 190.9960021973
0.6835676432 1628374.3242187500 190.9960021973
0.6459423304 1628373.9979705811 186.6450042725
0.6135706902 1628373.8256530762 187.1710052490
0.6081609130 1628373.7556457520 187.1670074463
0.6490669847 1628373.9066009521 191.5630035400
0.5991662741 1628373.5248336792 187.7200012207
0.5933854580 1628373.4557571411 187.7250061035
0.6108254194 1628373.4121093750 192.0390014648
0.5875154734 1628373.1335754395 188.6620025635
0.6054156423 1628373.3421020508 192.0520019531
0.5413557291 1628372.8286819458 189.2010040283
0.5643616915 1628372.7711105347 189.2030029297
0.5987732410 1628372.9356231689 192.5890045166
0.5900238752 1628372.8739700317 192.6210021973
0.5258078575 1628372.4444808960 190.1410064697
0.5462163687 1628372.3934097290 193.1100006104
0.5404354930 1628372.3243331909 193.1020050049
0.5000566244 1628372.0885162354 190.6750030518
0.6565921307 1628373.1277923584 202.9210052490
0.6740321517 1628373.0841522217 203.0260009766
0.6597167850 1628373.0364303589 203.1340026855
0.6513385177 1628372.9738540649 203.1640014648
0.6687784791 1628372.9302139282 203.2760009766
0.4882496297 1628371.7811889648 191.6320037842
0.6574316621 1628372.8750610352 203.3040008545
0.6451562643 1628372.8195419312 203.4060058594
0.4936594367 1628371.8511962891 193.7250061035
0.6334383488 1628372.7653274536 203.4730072021
0.6538468599 1628372.7142562866 203.5570068359
0.6395315528 1628372.6665344238 203.6560058594
0.6311532259 1628372.6039581299 203.6840057373
0.6188777685 1628372.5484390259 203.7760009766
0.6363177896 1628372.5047912598 203.8580017090
0.6249709725 1628372.4496459961 203.8880004883
0.5896308422 1628372.2847595215 202.3280029297
0.6162216067 1628372.3880004883 203.9290008545
0.5782840252 1628372.2296142578 202.4010009766
0.6078432798 1628372.3254241943 203.9380035400
0.5986925364 1628372.1785430908 202.4640045166
0.5985363722 1628372.2624740601 203.8730010986
0.5868184566 1628372.2082595825 203.9640045166
0.6072269678 1628372.1571807861 203.9810028076
0.5988486409 1628372.0946044922 203.9830017090
0.5875018239 1628372.0394592285 203.9850006104
0.5640357733 1628371.8448562622 202.1900024414
0.5807923675 1628371.9700088501 203.9830017090
0.5582548976 1628371.7757797241 202.1580047607
0.5694455504 1628371.9148635864 203.9850006104
0.5459794402 1628371.7202606201 202.1820068359
0.5610672235 1628371.8522872925 203.9900054932
0.5376011133 1628371.6576843262 202.1900024414
0.5811046958 1628371.8021392822 203.9980010986
0.5288517475 1628371.5960388184 202.1790008545
0.5727263689 1628371.7395629883 204.0030059814
0.5634194613 1628371.6766204834 204.0050048828
0.5550411344 1628371.6140441895 204.0030059814
0.5462917686 1628371.5523910522 204.0030059814
0.5379134417 1628371.4898147583 203.9980010986
0.5286065340 1628371.4268722534 203.9960021973
0.5198571682 1628371.3652267456 204.0010070801
0.5372971892 1628371.3215789795 204.0010070801
0.5289188623 1628371.2590026855 204.0090026855
0.5205405354 1628371.1964263916 204.0070037842
0.5108625293 1628371.1344070435 204.0070037842
0.5024842024 1628371.0718307495 204.0050048828
0.4941059053 1628371.0092544556 204.0000000000
0.4853565395 1628370.9476089478 203.9980010986
0.5057650805 1628370.8965301514 204.0010070801
0.4964581430 1628370.8335876465 204.0050048828
0.4877087474 1628370.7719345093 204.0090026855
0.4443613589 1628370.5435485840 202.1020050049
0.4793304503 1628370.7093582153 204.0070037842
0.4356119931 1628370.4819030762 202.1020050049
0.4709521532 1628370.6467819214 204.0050048828
0.3863946497 1628369.9313278198 197.9830017090
0.4612741470 1628370.5847625732 204.0010070801
0.4476421773 1628370.3682479858 202.0910034180
0.3804576397 1628369.9461898804 198.6360015869
0.4528958499 1628370.5221862793 203.9940032959
0.4409327209 1628370.2988052368 202.0850067139
0.4445175231 1628370.4596099854 203.9940032959
0.3691108227 1628369.8910369873 199.2440032959
0.4645549655 1628370.4094696045 203.9850006104
0.3889921010 1628369.9248275757 200.0130004883
0.3192101121 1628369.5092697144 196.6100006104
0.4561766684 1628370.3468933105 203.9920043945
0.3392475545 1628369.4591217041 196.6730041504
0.4468697309 1628370.2839431763 203.9880065918
0.3806138039 1628369.8622512817 200.5180053711
0.3949291408 1628369.9099731445 201.4010009766
0.3865508139 1628369.8473968506 201.4120025635
0.3835823238 1628369.8548278809 201.9880065918
0.4010223150 1628369.8111801147 202.1060028076
0.3103716671 1628369.1945190430 197.1490020752
0.4320942760 1628369.9840545654 203.9880065918
0.3913443387 1628369.7491607666 202.1100006104
0.4207474589 1628369.9289016724 203.9940032959
0.3829660118 1628369.6865844727 202.0820007324
0.3745877147 1628369.6240081787 202.1060028076
0.3658383191 1628369.5623626709 202.1040039063
0.3943128288 1628369.7417297363 204.0420074463
0.3829660118 1628369.6865844727 204.0670013428
0.4033745229 1628369.6355133057 204.0820007324
0.3946251571 1628369.5738601685 204.1040039063
0.3832783401 1628369.5187149048 204.1170043945
0.3739714026 1628369.4557723999 204.1320037842
0.2578147352 1628368.6523056030 198.4810028076
0.2782232463 1628368.6012344360 198.5090026855
0.3048140407 1628368.7044677734 202.1100006104
0.2519448102 1628368.3301239014 199.3200073242
0.2955071032 1628368.6415252686 202.1280059814
0.2201004028 1628368.0729522705 199.8130035400
0.2401378453 1628368.0228042603 199.8390045166
0.3041977286 1628368.5362319946 204.4980010986
0.2665724456 1628368.2099761963 202.0950012207
0.2928509116 1628368.4810791016 204.5140075684
0.2844726145 1628368.4185028076 204.5180053711
0.2488872260 1628368.0844497681 202.1040039063
0.2112619430 1628367.7582015991 200.6450042725
0.2838563025 1628368.2502670288 204.5910034180
0.2054810822 1628367.6891250610 200.6430053711
0.2725094855 1628368.1951217651 204.6130065918
0.2547655106 1628367.9026565552 204.2250061035
0.2690808177 1628367.9503707886 204.9550018311
0.1881081611 1628367.3957290649 201.1790008545
0.2372364253 1628367.6931991577 203.6340026855
0.1851396561 1628367.4031600952 202.1210021973
0.2079894543 1628367.4295196533 203.1300048828
0.1966426373 1628367.3743743896 203.1260070801
0.1845233589 1628367.2349166870 202.6230010986
0.1733326912 1628367.0958404541 202.1100006104
0.1619858742 1628367.0406875610 202.1300048828
0.2137703151 1628367.4985961914 205.6580047607
0.1439295709 1628366.9160919189 202.5800018311
0.2055481672 1628367.3520889282 205.8390045166
0.1301414669 1628366.7835159302 202.1280059814
0.2229881734 1628367.3084411621 205.9120025635
0.1357074231 1628366.7695846558 202.8390045166
0.1561159343 1628366.7185134888 202.8500061035
0.1324936748 1628366.6078414917 203.3650054932
0.1326498240 1628366.5239105225 203.5820007324
0.1242715195 1628366.4613342285 203.6150054932
0.1242715195 1628366.4613342285 204.0180053711
0.1817780882 1628366.8213729858 206.6450042725
0.1205305606 1628366.3844604492 203.8800048828
0.1091837287 1628366.3293075562 203.9570007324
0.0888423026 1628366.0433425903 202.0930023193
0.0800929219 1628365.9816970825 202.1040039063
0.1735559255 1628366.6748657227 206.8580017090
0.0717146099 1628365.9191207886 202.0970001221
0.1612804979 1628366.6193466187 206.8890075684
0.1057550833 1628366.0845642090 204.6380004883
0.1003452763 1628366.0145568848 204.6230010986
0.0569391400 1628365.6192321777 202.1510009766
0.0915959105 1628365.9529113770 204.9680023193
0.0535692386 1628365.5414199829 203.5850067139
0.1180305183 1628366.1400833130 207.6320037842
0.0448198691 1628365.4797744751 203.5780029297
0.1057550833 1628366.0845642090 207.6320037842
0.1176291332 1628366.0548477173 207.7920074463
0.1059112400 1628366.0006332397 207.8370056152
0.0742229894 1628365.6595153809 205.7740020752
0.1233512387 1628365.9569854736 207.8690032959
0.1090359092 1628365.9092636108 207.9900054932
0.0976890922 1628365.8541183472 208.0260009766
0.0561666898 1628365.5349197388 206.1040039063
0.1121605784 1628365.8179016113 208.1390075684
0.0507568903 1628365.4649200439 206.0760040283
0.0969166309 1628365.7698135376 208.1710052490
-0.0133029995 1628364.9514923096 203.3840026855
0.0826013014 1628365.7220916748 208.2760009766
-0.0336444303 1628364.6655273438 202.0410003662
0.1030098125 1628365.6710205078 208.3110046387
-0.0420227386 1628364.6029510498 202.0760040283
0.0857259706 1628365.6307296753 208.4140014648
-0.0507721193 1628364.5413055420 202.0670013428
0.0743791386 1628365.5755844116 208.4420013428
0.0888506398 1628365.5393676758 208.5420074463
0.0736066923 1628365.4912796021 208.6340026855
0.0622598715 1628365.4361343384 208.6820068359
0.0767313614 1628365.3999176025 208.7350006104
0.0653845370 1628365.3447647095 208.7960052490
0.0540377088 1628365.2896194458 208.8600006104
0.0685091987 1628365.2534027100 208.9250030518
0.0562337711 1628365.1978836060 208.9900054932
-0.0659489781 1628364.1561813354 203.0500030518
0.0419184417 1628365.1501693726 209.0480041504
0.0593584403 1628365.1065216064 209.0820007324
0.0450431108 1628365.0588073730 209.1860046387
0.0336962789 1628365.0036544800 209.2200012207
0.0247016791 1628364.7728424072 208.2050018311
0.0329238288 1628364.9193496704 209.3780059814
0.0245455205 1628364.8567733765 209.4080047607
0.0157961398 1628364.7951278687 209.3710021973
0.0181483608 1628364.6194610596 208.6430053711
-0.1239156872 1628363.5439605713 202.7630004883
0.0218893196 1628364.6963348389 209.4550018311
0.0096138902 1628364.6408157349 209.4700012207
0.0012355800 1628364.5782394409 209.4620056152
0.0157070700 1628364.5420227051 209.5160064697
0.0069576902 1628364.4803771973 209.5440063477
-0.0043891300 1628364.4252319336 209.5520019531
-0.0136960503 1628364.3622817993 209.5570068359
-0.0220743697 1628364.2997055054 209.5610046387
-0.0046343599 1628364.2560577393 209.5630035400
-0.1848509163 1628362.9391746521 202.5050048828
-0.0133837396 1628364.1944122314 209.5650024414
-0.0217620507 1628364.1318359375 209.5720062256
-0.0340374783 1628364.0763168335 209.5650024414
-0.0427868590 1628364.0146713257 209.5610046387
-0.0511651710 1628363.9520950317 209.5610046387
-0.0337251686 1628363.9084510803 209.5610046387
-0.0421034805 1628363.8458747864 209.5700073242
-0.0517814718 1628363.7838554382 209.5700073242
-0.0631282926 1628363.7287063599 209.5780029297
-0.0715065971 1628363.6661300659 209.5800018311
-0.2406215519 1628362.2352218628 202.1000061035
-0.2493709326 1628362.1735725403 202.0890045166
-0.2518122196 1628362.0961380005 202.0420074463
-0.2605615854 1628362.0344924927 202.0480041504
-0.2431215942 1628361.9908485413 202.0820007324
-0.2524285018 1628361.9278984070 202.1040039063
-0.1031948626 1628363.3250198364 209.6450042725
-0.2494599968 1628361.9204711914 202.3780059814
-0.0831574127 1628363.2748756409 209.6510009766
-0.2582093775 1628361.8588218689 202.4010009766
-0.0954328403 1628363.2193565369 209.6560058594
-0.1038111523 1628363.1567802429 209.6580047607
-0.1121894568 1628363.0942039490 209.6560058594
-0.1239073500 1628363.0399856567 209.6560058594
-0.1332142651 1628362.9770355225 209.6580047607
-0.1128057614 1628362.9259643555 209.6620025635
-0.1241525784 1628362.8708152771 209.6690063477
-0.1329019666 1628362.8091697693 209.6710052490
-0.1412802637 1628362.7465934753 209.6660003662
-0.1505871862 1628362.6836433411 209.6690063477
-0.1619340181 1628362.6284980774 209.6600036621
-0.1677148789 1628362.5594215393 209.6540069580
-0.1502748728 1628362.5157737732 209.6540069580
-0.1586531848 1628362.4531974792 209.6490020752
-0.1683311760 1628362.3911819458 209.6510009766
-0.1767094880 1628362.3286056519 209.6490020752
-0.1880563051 1628362.2734565735 209.6470031738
-0.1938371807 1628362.2043800354 209.6430053711
-0.2061126083 1628362.1488609314 209.6390075684
-0.1857040972 1628362.0977859497 209.6470031738
-0.1940824091 1628362.0352096558 209.6490020752
-0.1998632699 1628361.9661331177 209.5850067139
1.4033497572 1628381.7881774902 193.9380035400
1.4142365456 1628381.5911483765 193.5540008545
1.3703619242 1628381.4476242065 193.2760009766
1.3937388659 1628381.3891220093 193.2610015869
1.3853605986 1628381.3265457153 193.2610015869
1.3795797825 1628381.2574691772 193.2440032959
1.3741699457 1628381.1874618530 193.2350006104
1.3644919395 1628381.1254425049 193.2200012207
1.3561136723 1628381.0628662109 193.2120056152
1.3503327370 1628380.9937896729 193.1920013428
1.3419544697 1628380.9312133789 193.1750030518
1.3356159925 1628380.8608398438 193.1510009766
1.3298351765 1628380.7917633057 193.1320037842
1.3214569092 1628380.7291870117 193.1080017090
1.3156759739 1628380.6601104736 193.0980072021
1.3004320860 1628380.6120223999 191.1880035400
1.3063690662 1628380.5971603394 193.0890045166
1.2950222492 1628380.5420150757 191.0910034180
1.2979907990 1628380.5345840454 193.4250030518
1.2892414331 1628380.4729385376 191.0820007324
1.3180282116 1628380.4844436646 193.4400024414
1.3126183748 1628380.4144363403 193.4230041504
1.3068375587 1628380.3453598022 193.3500061035
1.2975306511 1628380.2824096680 193.2920074463
1.2921208143 1628380.2124023438 193.2230072021
1.2863399982 1628380.1433258057 193.1430053711
1.2779616117 1628380.0807495117 193.0520019531
1.2712521553 1628380.0113067627 193.0290069580
1.2658424377 1628379.9412994385 192.9230041504
1.2600615025 1628379.8722229004 192.8520050049
1.2076524496 1628379.7500534058 189.5330047607
1.2516832352 1628379.8096466064 192.7760009766
1.2449737787 1628379.7401962280 192.7200012207
1.1874670982 1628379.3801574707 188.3650054932
1.2216638327 1628379.4616622925 192.3540039063
1.1790888309 1628379.3175811768 188.3880004883
1.2162539959 1628379.3916625977 192.3350067139
1.2078757286 1628379.3290863037 192.3170013428
1.2020947933 1628379.2600097656 192.3300018311
1.1671257019 1628379.0941925049 187.9790039063
1.1172250509 1628378.7124176025 186.9470062256
1.1032220125 1628378.4968338013 186.6510009766
1.0968835354 1628378.4264602661 186.6380004883
1.1379458904 1628378.4934768677 191.3470001221
1.1291965246 1628378.4318313599 191.3430023193
1.0739750862 1628378.2331542969 187.0890045166
1.0676366091 1628378.1627807617 187.0540008545
1.1200456619 1628378.2849502563 191.1640014648
1.1116673946 1628378.2223739624 191.1820068359
1.0325196981 1628377.5769195557 187.6640014648
1.0241414309 1628377.5143432617 187.6770019531
1.0271098614 1628377.5069198608 190.3450012207
1.0501158237 1628377.4493408203 190.3320007324
0.9948944449 1628377.2506713867 186.6750030518
0.9894846678 1628377.1806640625 186.6600036621
1.0153028965 1628377.1996002197 188.1340026855
1.0095220804 1628377.1305160522 188.1410064697
0.9980190992 1628377.1593093872 190.0740051270
0.9573362470 1628376.5873794556 189.3950042725
0.9337139726 1628376.4767150879 188.7400054932
0.9108054638 1628376.2834091187 186.6580047607
0.9424046278 1628376.3714218140 189.1100006104
0.9044670463 1628376.2130355835 186.6360015869
0.9369947910 1628376.3014144897 189.1150054932
0.9312139750 1628376.2323379517 189.1130065918
0.9248755574 1628376.1619644165 189.1340026855
0.9190946817 1628376.0928878784 189.0850067139
0.9138410091 1628375.9389495850 188.7660064697
0.8926600814 1628375.9057159424 189.4420013428
0.8527496457 1628375.4180908203 188.1320037842
0.8460401893 1628375.3486480713 188.1280059814
0.8149682283 1628375.1757736206 186.6360015869
0.8519772291 1628375.3337860107 189.9720001221
0.8432278037 1628375.2721405029 189.9530029297
0.7998804450 1628375.0437469482 186.6790008545
0.8228864074 1628374.9861755371 186.7070007324
0.8204451203 1628374.9087448120 187.6510009766
0.8116957545 1628374.8470916748 187.6620025635
0.8288234472 1628374.9713211060 190.4490051270
0.8230425715 1628374.9022445679 190.4420013428
0.7647635341 1628374.4578933716 187.0910034180
0.7593537569 1628374.3878860474 187.0970001221
0.7475467920 1628374.0805664063 186.6100006104
0.7764226794 1628374.3451690674 191.0200042725
0.7710128427 1628374.2751693726 191.0240020752
0.7097653151 1628373.8382492065 187.1190032959
0.7039844990 1628373.7691726685 187.1390075684
0.7439619303 1628373.9197540283 191.5330047607
0.6866115332 1628373.4757766724 187.7460021973
0.6799020767 1628373.4063262939 187.7330017090
0.6539946795 1628373.1342926025 188.6320037842
0.6973420978 1628373.3626861572 192.0700073242
0.6482138038 1628373.0652160645 188.6280059814
0.6919322610 1628373.2926788330 192.0780029297
0.6566592455 1628372.7907562256 189.2460021973
0.6508783698 1628372.7216796875 189.2400054932
0.6916282773 1628372.9565734863 192.5800018311
0.6862185001 1628372.8865661621 192.5980072021
0.6220024228 1628372.4570770264 190.0850067139
0.6191900969 1628372.3805694580 190.0220031738
0.6366301179 1628372.3369293213 193.1300048828
0.6282517910 1628372.2743530273 193.1320037842
0.5840731859 1628371.7947158813 191.5760040283
0.5786634088 1628371.7247085571 191.5780029297
0.5898540616 1628371.8637924194 193.6600036621
0.5523849130 1628371.4536056519 192.2030029297
0.5430780053 1628371.3906555176 192.2180023193
0.5660839677 1628371.3330841064 194.1970062256
0.5606741905 1628371.2630767822 194.1880035400
0.6738623381 1628372.0739669800 202.5460052490
0.5312710404 1628371.0833358765 193.0610046387
0.6595469713 1628372.0262527466 202.6640014648
0.6769869924 1628371.9826049805 202.7350006104
0.6656401753 1628371.9274597168 202.8190002441
0.6568908095 1628371.8658065796 202.8890075684
0.6446153522 1628371.8102874756 202.9660034180
0.6620553732 1628371.7666473389 203.0330047607
0.5202365518 1628370.8603134155 194.7330017090
0.6507085562 1628371.7115020752 203.1020050049
0.6393617392 1628371.6563491821 203.1900024414
0.6280148625 1628371.6012039185 203.2610015869
0.6424863935 1628371.5649871826 203.3600006104
0.6328083873 1628371.5029678345 203.3930053711
0.6214615703 1628371.4478225708 203.4880065918
0.6101147532 1628371.3926773071 203.5590057373
0.6275547743 1628371.3490295410 203.6540069580
0.6162079573 1628371.2938842773 203.6860046387
0.6039324999 1628371.2383651733 203.7850036621
0.6213725209 1628371.1947174072 203.8840026855
0.6096546054 1628371.1405029297 203.9320068359
0.5835910439 1628370.9524002075 202.3320007324
0.6012762785 1628371.0779266357 203.9640045166
0.5748416781 1628370.8907546997 202.3110046387
0.5899294615 1628371.0227737427 203.9600067139
0.5664633512 1628370.8281784058 202.2740020752
0.5835910439 1628370.9524002075 203.9550018311
0.5580850840 1628370.7656021118 202.3000030518
0.5718731880 1628370.8981781006 203.9830017090
0.5543441176 1628370.6887207031 202.1600036621
0.5922816992 1628370.8471069336 203.9880065918
0.5459657907 1628370.6261444092 202.1470031738
0.5839033723 1628370.7845306396 204.0000000000
0.5372164249 1628370.5644989014 202.1410064697
0.5751540065 1628370.7228851318 204.0030059814
0.5318065882 1628370.4944915771 202.1340026855
0.5658470988 1628370.6599349976 204.0090026855
0.5545002818 1628370.6047897339 204.0110015869
0.5461219549 1628370.5422134399 204.0180053711
0.5373725891 1628370.4805679321 204.0140075684
0.5577811003 1628370.4294891357 204.0110015869
0.5484741926 1628370.3665466309 204.0090026855
0.5397247672 1628370.3048934937 204.0090026855
0.5313464999 1628370.2423171997 204.0130004883
0.5229681730 1628370.1797409058 204.0070037842
0.5136612654 1628370.1167984009 204.0110015869
0.5049118996 1628370.0551452637 204.0070037842
0.4965335727 1628369.9925689697 204.0070037842
0.5169420838 1628369.9414978027 204.0010070801
0.5081927180 1628369.8798522949 203.9980010986
0.4988857806 1628369.8169021606 204.0030059814
0.4875389636 1628369.7617568970 204.0180053711
0.4791606367 1628369.6991806030 204.0440063477
0.4704112709 1628369.6375274658 204.0610046387
0.4878512621 1628369.5938873291 204.0800018311
0.4815128446 1628369.5235061646 204.0670013428
0.4727634788 1628369.4618606567 204.0290069580
0.4673536718 1628369.3918533325 203.9320068359
0.4560068548 1628369.3367080688 204.0160064697
0.3710783124 1628368.6221847534 198.5140075684
0.4582028985 1628369.2449722290 203.7660064697
0.3626999855 1628368.5596084595 198.5630035400
0.4524220526 1628369.1758956909 203.7030029297
0.4470122457 1628369.1058959961 203.6130065918
0.3507368863 1628368.3362197876 199.2590026855
0.3423585594 1628368.2736434937 199.2550048828
0.3829523623 1628368.5924682617 202.1150054932
0.3742029667 1628368.5308227539 202.1230010986
0.3333639503 1628368.0428237915 199.8600006104
0.3711453974 1628368.2851486206 202.0980072021
0.3249856532 1628367.9802474976 199.9060058594
0.3597985804 1628368.2299957275 202.1130065918
0.3504916430 1628368.1670532227 202.1150054932
0.3763990402 1628368.4390869141 204.5420074463
0.3680207431 1628368.3765106201 204.5610046387
0.3884292543 1628368.3254394531 204.5740051270
0.3770824075 1628368.2702865601 204.5950012207
0.3016757071 1628367.7017135620 200.5740051270
0.3683330417 1628368.2086410522 204.6040039063
0.3590261340 1628368.1456909180 204.6100006104
0.3478354514 1628368.0066146851 204.9040069580
0.3394571543 1628367.9440383911 204.9190063477
0.2809632123 1628367.4166793823 201.2250061035
0.3072416782 1628367.6877899170 203.5330047607
0.2686877847 1628367.3611602783 201.2660064697
0.2979347408 1628367.6248397827 203.5570068359
0.2716563046 1628367.3537368774 202.1040039063
0.2982470691 1628367.4569702148 203.1990051270
0.2898687422 1628367.3943939209 203.2050018311
0.2719686031 1628367.1858673096 201.7610015869
0.2606217861 1628367.1307144165 201.8070068359
0.2749371231 1628367.1784362793 202.5500030518
0.2572518885 1628367.0529098511 202.1250000000
0.3095938861 1628367.5121154785 205.6450042725
0.2982470691 1628367.4569702148 205.6540069580
0.2430927157 1628366.9212570190 202.5110015869
0.3043402433 1628367.3581771851 205.8190002441
0.2343433350 1628366.8596115112 202.4850006104
0.2920648158 1628367.3026580811 205.8390045166
0.2136895806 1628366.7415161133 202.1260070801
0.2366955429 1628366.6839447021 202.1130065918
0.2454449236 1628366.7455902100 202.8970031738
0.2396640629 1628366.6765136719 202.9040069580
0.2312857360 1628366.6139373779 203.3110046387
0.2161979526 1628366.4819107056 203.6250000000
0.2018826157 1628366.4341964722 203.7380065918
0.2776016593 1628366.8348999023 206.6340026855
0.2107881606 1628366.4119110107 203.9810028076
0.1900756657 1628366.1268768311 202.1000061035
0.2692233324 1628366.7723236084 206.6410064697
0.2050072849 1628366.3428344727 203.9380035400
0.2510108948 1628366.7316589355 206.7630004883
0.1966289729 1628366.2802581787 203.9400024414
0.2426325679 1628366.6690826416 206.7920074463
0.2541355491 1628366.6402969360 206.8990020752
0.2457572371 1628366.5777206421 206.9320068359
0.2314419001 1628366.5300064087 207.0350036621
0.2488819063 1628366.4863586426 207.0670013428
0.2336379588 1628366.4382705688 207.1620025635
0.1906028837 1628366.0420074463 204.6880035400
0.2222911417 1628366.3831176758 207.2310028076
0.1464242935 1628365.5623779297 202.0950012207
0.2337941229 1628366.3543319702 207.3280029297
0.2224472910 1628366.2991867065 207.3800048828
0.2111004740 1628366.2440414429 207.4250030518
0.2285404652 1628366.2003936768 207.5160064697
0.2103280127 1628366.1597366333 207.6060028076
0.2019497156 1628366.0971603394 207.6510009766
0.2193897069 1628366.0535125732 207.6820068359
0.2021058649 1628366.0132217407 207.7910003662
0.1907590330 1628365.9580764771 207.8410034180
0.1551736742 1628365.6240234375 205.8600006104
0.2081990391 1628365.9144287109 207.9010009766
0.1434557736 1628365.5698013306 205.8800048828
0.1929551065 1628365.8663406372 207.9660034180
0.1523613036 1628365.5475158691 206.0850067139
0.1816082746 1628365.8111953735 208.0330047607
0.1439830065 1628365.4849395752 206.1100006104
0.0763383135 1628364.8107070923 202.0720062256
0.1986772269 1628365.7684783936 208.0970001221
0.0799231082 1628364.9715118408 203.4140014648
0.0679600015 1628364.7481307983 202.0650024414
0.1873303950 1628365.7133331299 208.1390075684
0.0566131696 1628364.6929779053 202.1230010986
0.1783357859 1628365.4825134277 208.5000000000
0.0448062085 1628364.3856582642 202.1230010986
0.1669889539 1628365.4273681641 208.5260009766
0.1351445466 1628365.1701889038 207.0570068359
0.0390253402 1628364.3165817261 202.0910034180
0.1556421369 1628365.3722229004 208.5260009766
0.1463352144 1628365.3092727661 208.5420074463
0.1375858337 1628365.2476272583 208.5370025635
0.1292075366 1628365.1850509644 208.5310058594
0.1466475278 1628365.1414031982 208.5330047607
0.1408666670 1628365.0723266602 208.5160064697
0.0244647805 1628364.0996932983 202.9900054932
0.1315597445 1628365.0093765259 208.4850006104
0.1231814325 1628364.9468002319 208.4660034180
0.1174005717 1628364.8777236938 208.3970031738
0.1119907722 1628364.8077239990 208.3300018311
0.1023127809 1628364.7457046509 208.3280029297
0.1112183109 1628364.7234191895 208.5240020752
0.0969029814 1628364.6756973267 208.6040039063
0.0885246694 1628364.6131210327 208.5760040283
-0.0457773618 1628363.4319610596 202.0370025635
0.1059646681 1628364.5694732666 208.6540069580
-0.0424074605 1628363.5097656250 202.8090057373
0.0998714864 1628364.6682662964 209.5630035400
-0.0658735633 1628363.3151626587 202.1320037842
-0.0742518678 1628363.2525863647 202.1040039063
-0.0542144217 1628363.2024421692 202.1100006104
0.0683393925 1628364.2432250977 208.1490020752
-0.0605528317 1628363.1320686340 202.1080017090
0.0586614087 1628364.1812057495 208.1640014648
0.0473145805 1628364.1260528564 208.1730041504
-0.0715873390 1628362.9090499878 202.5700073242
0.0705354512 1628364.1514892578 209.5630035400
-0.0779257491 1628362.8386726379 202.5290069580
0.0617860816 1628364.0898437500 209.5720062256
0.0272854697 1628363.6722221375 209.5290069580
-0.1531763077 1628362.1861686707 202.0970001221
-0.1619256735 1628362.1245193481 202.0970001221
-0.1682640910 1628362.0541419983 202.0540008545
-0.1766424030 1628361.9915657043 202.0850067139
-0.1566049457 1628361.9414215088 202.0870056152
-0.1649832726 1628361.8788452148 202.1130065918
-0.1679517776 1628361.8862762451 202.4570007324
-0.1621625870 1628361.4513740540 209.6080017090
-0.1714694947 1628361.3884277344 209.6150054932
-0.1828163266 1628361.3332786560 209.6170043945
-0.1624078155 1628361.2822036743 209.6260070801
1.4839965105 1628381.4165725708 193.1490020752
1.4631278515 1628381.2154693604 192.7310028076
1.4606865644 1628381.1380386353 192.4510040283
1.4519371986 1628381.0763931274 192.4450073242
1.4465273619 1628381.0063858032 192.2720031738
1.4609988928 1628380.9701690674 193.1510009766
1.4542894363 1628380.9007186890 193.1450042725
1.4459110498 1628380.8381423950 193.1300048828
1.4405013323 1628380.7681427002 193.1150054932
1.4232174158 1628380.7278518677 191.5970001221
1.4317519665 1628380.7064895630 193.0910034180
1.4254134893 1628380.6361160278 193.0740051270
1.4196326733 1628380.5670394897 193.0570068359
1.4053173065 1628380.5193176270 191.0330047607
1.4112542868 1628380.5044631958 193.0410003662
1.4028760195 1628380.4418869019 193.0310058594
1.3961665630 1628380.3724365234 193.0090026855
1.3907567263 1628380.3024368286 192.9810028076
1.3849759102 1628380.2333602905 192.8150024414
1.4053844213 1628380.1822814941 193.0670013428
1.3970060349 1628380.1197052002 193.0720062256
1.3902965784 1628380.0502624512 193.0540008545
1.3848867416 1628379.9802551270 192.9680023193
1.3761373758 1628379.9186096191 192.8970031738
1.3707276583 1628379.8486022949 192.8320007324
1.3640182018 1628379.7791519165 192.7550048828
1.3586083651 1628379.7091445923 192.6820068359
1.3528275490 1628379.6400680542 192.6040039063
1.3444491625 1628379.5774917603 192.5310058594
1.3377397060 1628379.5080490112 192.4420013428
1.2977621555 1628379.3574600220 188.3600006104
1.3323298693 1628379.4380416870 192.3350067139
1.3265490532 1628379.3689651489 192.3220062256
1.3211392164 1628379.2989578247 192.3260040283
1.2832016945 1628379.1405792236 187.9640045166
1.2774207592 1628379.0715026855 187.9980010986
1.2304885387 1628378.6822967529 186.9380035400
1.2222664356 1628378.5357894897 186.6060028076
1.2155569792 1628378.4663391113 186.6320037842
1.2482409477 1628378.4707870483 191.3560028076
1.2419024706 1628378.4004058838 191.2610015869
1.1866810322 1628378.2017364502 187.0670013428
1.2307118177 1628378.2613296509 191.1990051270
1.1431858540 1628377.5532989502 187.6690063477
1.1374049187 1628377.4842224121 187.6670074463
1.1457833052 1628377.5467987061 190.3200073242
1.1403734684 1628377.4767990112 190.3320007324
1.1055605412 1628377.2270507813 186.6820068359
1.1055605412 1628377.2270507813 188.1190032959
1.0997797251 1628377.1579742432 188.1150054932
1.1170635223 1628377.1982574463 190.0950012207
1.0789780617 1628376.6198348999 189.3430023193
1.0705997944 1628376.5572586060 189.3560028076
1.0614490509 1628376.4103775024 189.0930023193
1.0205429792 1628376.2594223022 186.6470031738
1.0556682348 1628376.3413009644 189.1040039063
1.0502583981 1628376.2712936401 189.1000061035
1.0435489416 1628376.2018432617 189.1340026855
1.0381391048 1628376.1318435669 189.1190032959
1.0299170017 1628375.9853286743 188.7660064697
1.0117044449 1628375.9446716309 189.4250030518
0.9714230299 1628375.4579772949 188.0870056152
0.9650846124 1628375.3875961304 188.1060028076
0.9593037367 1628375.3185195923 188.0910034180
0.9680531025 1628375.3801727295 189.9810028076
0.9243346453 1628375.1527099609 186.6620025635
0.9622722864 1628375.3110961914 189.9940032959
0.9215223193 1628375.0762023926 186.6620025635
0.9131439924 1628375.0136260986 186.7010040283
0.9307401776 1628374.8860473633 187.6840057373
0.9478678703 1628375.0102691650 190.4340057373
0.9420869946 1628374.9411926270 190.4420013428
0.8867764473 1628374.4894180298 187.0610046387
0.8809956312 1628374.4203414917 187.0800018311
0.8726173043 1628374.3577651978 187.0740051270
0.8954671025 1628374.3841247559 191.0260009766
0.8310949206 1628374.0385665894 186.6470031738
0.8900573254 1628374.3141174316 191.0440063477
0.8230289221 1628373.8081207275 187.1360015869
0.8659749031 1628373.9512786865 191.5110015869
0.8056559563 1628373.5147323608 187.7200012207
0.7989464998 1628373.4452819824 187.7530059814
0.7756365538 1628373.1667480469 188.6100006104
0.7672582269 1628373.1041717529 188.6100006104
0.8109766841 1628373.3316345215 192.0870056152
0.8051958680 1628373.2625579834 192.0820007324
0.7469168305 1628372.8182067871 189.2330017090
0.7411359549 1628372.7491302490 189.2590026855
0.7764760852 1628372.9140167236 192.5820007324
0.7436443567 1628372.4895324707 190.0670013428
0.7382345200 1628372.4195251465 190.0610046387
0.7556745410 1628372.3758773804 193.1360015869
0.7149245739 1628372.1409912109 190.6970062256
0.7469251752 1628372.3142318726 193.1490020752
0.7031176090 1628371.8336715698 191.5570068359
0.6977078319 1628371.7636642456 191.5590057373
0.7114959359 1628371.8962478638 193.6640014648
0.6647198796 1628371.4231109619 192.2350006104
0.6563415527 1628371.3605346680 192.2400054932
0.6593101025 1628371.3531036377 194.1970062256
0.6793475747 1628371.3029556274 194.2220001221
0.6532840133 1628371.1148605347 193.0260009766
0.6422494650 1628370.8918457031 194.7030029297
0.6325715184 1628370.8298263550 194.7070007324
0.7577898502 1628371.5270690918 203.3300018311
0.7434745431 1628371.4793472290 203.4360046387
0.6038517356 1628370.4812850952 194.5390014648
0.7321276665 1628371.4242019653 203.5390014648
0.5980709195 1628370.4122085571 194.4980010986
0.7233783007 1628371.3625488281 203.5720062256
0.7378498316 1628371.3263320923 203.6860046387
0.5867240429 1628370.3570556641 195.2030029297
0.7285428643 1628371.2633895874 203.7140045166
0.6071326137 1628370.3059844971 195.2760009766
0.7142275572 1628371.2156677246 203.8320007324
0.6848244071 1628371.0359268188 202.2510070801
0.7058492303 1628371.1530914307 203.8560028076
0.7052329779 1628370.9848556519 202.3170013428
0.6909176111 1628370.9371337891 202.4210052490
0.6825392842 1628370.8745574951 202.4550018311
0.7082014680 1628370.9774246216 203.8200073242
0.6886324883 1628370.7757644653 202.6130065918
0.6763570309 1628370.7202453613 202.7120056152
0.6646391749 1628370.6660308838 202.7460021973
0.6820791364 1628370.6223831177 202.8630065918
0.6737008691 1628370.5598068237 202.8860015869
0.6593855023 1628370.5120925903 202.9770050049
0.6471101046 1628370.4565734863 203.0820007324
0.6387317777 1628370.3939971924 203.1060028076
0.6587691903 1628370.3438491821 203.1080017090
0.6442977190 1628370.3800659180 203.9850006104
0.6617377400 1628370.3364181519 203.9900054932
0.6533594131 1628370.2738418579 203.9960021973
0.6446100473 1628370.2121963501 203.9980010986
0.6155779958 1628370.0315246582 202.5870056152
0.6353031397 1628370.1492462158 204.0010070801
0.6127656102 1628369.9550170898 202.4570007324
0.6269248128 1628370.0866699219 204.0070037842
0.6064271927 1628369.8846435547 202.3860015869
0.6185464859 1628370.0240936279 203.9980010986
0.6097971201 1628369.9624481201 204.0010070801
0.6004902124 1628369.8994979858 203.9960021973
0.6208987236 1628369.8484268188 204.0030059814
0.6121493578 1628369.7867813110 204.0160064697
0.6008024812 1628369.7316360474 204.0330047607
0.5924242139 1628369.6690597534 204.0590057373
0.5831173062 1628369.6061096191 204.0800018311
0.5713993907 1628369.5518875122 204.0950012207
0.5918079019 1628369.5008163452 204.1130065918
0.5834295750 1628369.4382400513 204.1230010986
0.5720827579 1628369.3830947876 204.1560058594
0.5624047518 1628369.3210754395 204.1950073242
0.5510579348 1628369.2659225464 204.2070007324
0.5714664459 1628369.2148513794 204.2330017090
0.5630881786 1628369.1522750854 204.2530059814
0.5513702631 1628369.0980606079 204.2700042725
0.5420633554 1628369.0351104736 204.2910003662
0.4469315112 1628368.3488159180 199.2070007324
0.5336850286 1628368.9725341797 204.3070068359
0.4402220249 1628368.2793655396 199.1410064697
0.5223382115 1628368.9173889160 204.3300018311
0.5423756838 1628368.8672409058 204.3500061035
0.4962159097 1628368.5623474121 202.1150054932
0.5339973569 1628368.8046646118 204.3730010986
0.4869090021 1628368.4993972778 202.1080017090
0.5217218995 1628368.7491455078 204.3910064697
0.5133436322 1628368.6865692139 204.4250030518
0.5019967556 1628368.6314239502 204.4620056152
0.4643715024 1628368.3051681519 202.0950012207
0.4466275275 1628368.0127029419 199.8890075684
0.4546935260 1628368.2431488037 202.0930023193
0.4373205900 1628367.9497604370 199.9270019531
0.4751020372 1628368.1920776367 202.0910034180
0.4900336564 1628368.4080352783 204.5480041504
0.4812842906 1628368.3463897705 204.5690002441
0.5016927719 1628368.2953109741 204.5820007324
0.4903459847 1628368.2401657104 204.5980072021
0.4810390472 1628368.1772155762 204.6100006104
0.4724458456 1628368.0316390991 204.8480072021
0.4577291310 1628367.8986816406 204.3760070801
0.3936692178 1628367.3852615356 201.2700042725
0.4225451350 1628367.6498641968 203.4900054932
0.3823224008 1628367.3301086426 201.2850036621
0.4141668081 1628367.5872879028 203.4920043945
0.4172914922 1628367.4959259033 203.2510070801
0.4089131653 1628367.4333496094 203.2500000000
0.3856032193 1628367.1548156738 201.7680053711
0.3711317480 1628367.1910324097 202.4960021973
0.3788937628 1628367.0853652954 202.1470031738
0.3705154359 1628367.0227890015 202.1390075684
0.4232285023 1628367.4810638428 205.6560058594
0.3677030802 1628366.9462814331 202.4880065918
0.4263531864 1628367.3897018433 205.7960052490
0.3593247831 1628366.8837051392 202.4810028076
0.3299216628 1628366.7039642334 202.1390075684
0.3939815462 1628367.2173919678 205.9060058594
0.3215433359 1628366.6413879395 202.1210021973
0.4054845273 1628367.1886062622 206.0780029297
0.3587085009 1628366.7154693604 202.9880065918
0.3941377103 1628367.1334533691 206.1130065918
0.4115777016 1628367.0898132324 206.2010040283
0.3532986939 1628366.6454620361 203.2830047607
0.3963337541 1628367.0417251587 206.2980041504
0.3849869370 1628366.9865722656 206.3320007324
0.3994584382 1628366.9503555298 206.4170074463
0.3851431012 1628366.9026412964 206.5140075684
0.3294615149 1628366.4517898560 203.6670074463
0.3767647743 1628366.8400650024 206.5480041504
0.3353985548 1628366.4369354248 203.9770050049
0.3882677555 1628366.8112792969 206.6690063477
0.3789608479 1628366.7483291626 206.6970062256
0.3646455109 1628366.7006072998 206.7830047607
0.3791170120 1628366.6643981934 206.8750000000
0.3677701652 1628366.6092453003 206.9230041504
0.3590207994 1628366.5475997925 206.9640045166
0.3411794007 1628366.5060119629 207.0780029297
0.3612168729 1628366.4558639526 207.1060028076
0.3443040848 1628366.4146499634 207.2030029297
0.3008979261 1628366.0193176270 204.7550048828
0.3355546892 1628366.3529968262 207.2270050049
0.2338695377 1628365.5133209229 202.0440063477
0.3500261903 1628366.3167800903 207.3240051270
0.3001254797 1628365.9350128174 204.9830017090
0.2215941101 1628365.4578018188 202.0820007324
0.3386793733 1628366.2616348267 207.3560028076
0.3234354258 1628366.2135467529 207.4570007324
0.3408754170 1628366.1698989868 207.4810028076
0.3295286000 1628366.1147537231 207.5740051270
0.3211503029 1628366.0521774292 207.5590057373
0.3124009073 1628365.9905319214 207.5520019531
0.3030939996 1628365.9275817871 207.5460052490
0.2917471826 1628365.8724365234 207.5310058594
0.2684372365 1628365.5939025879 205.8890075684
0.2859663069 1628365.8033599854 207.4880065918
0.3093433380 1628365.7448577881 207.4640045166
0.2979965210 1628365.6897048950 207.4570007324
0.2045335025 1628364.9965438843 203.3970031738
0.1896018684 1628364.7805786133 202.0700073242
0.2912870347 1628365.6202621460 207.4510040283
0.1961551905 1628364.9339675903 203.3970031738
0.1841920763 1628364.7105789185 202.0570068359
0.2799402177 1628365.5651168823 207.4490051270
0.2451272905 1628365.3153686523 206.7160034180
0.2595987916 1628365.2791519165 206.8260040283
0.2452834398 1628365.2314300537 206.9360046387
0.2567864358 1628365.2026443481 207.0460052490
0.1313228458 1628364.3362350464 202.1020050049
0.2398736328 1628365.1614227295 207.2180023193
0.2513766289 1628365.1326370239 207.3500061035
0.2416986376 1628365.0706176758 207.3630065918
0.2277543694 1628365.0219726563 207.4700012207
0.2392573506 1628364.9931869507 207.5930023193
0.2219734937 1628364.9528961182 207.7010040283
0.2364449948 1628364.9166793823 207.8320007324
0.2191611528 1628364.8763885498 207.9600067139
0.1284214258 1628364.0066223145 203.0140075684
0.2310351878 1628364.8466720581 208.1170043945
0.2310351878 1628364.8466720581 208.4450073242
0.2213572115 1628364.7846527100 208.4420013428
0.2100103796 1628364.7295074463 208.4490051270
0.2016320676 1628364.6669311523 208.4380035400
0.0851714388 1628363.5273590088 202.0590057373
0.2161035538 1628364.6307144165 208.5460052490
0.0758645236 1628363.4644126892 202.0980072021
0.2132912129 1628364.5542144775 208.4270019531
0.0825739875 1628363.5338592529 202.7940063477
0.1811344773 1628364.4649047852 208.3150024414
0.0591078885 1628363.3392601013 202.0720062256
0.1783221364 1628364.3883972168 208.2380065918
0.1725412607 1628364.3193206787 208.1620025635
0.0440201014 1628363.2072372437 202.0670013428
0.1632343382 1628364.2563705444 208.1600036621
0.0352707282 1628363.1455879211 202.0820007324
0.1806743443 1628364.2127304077 208.1640014648
0.0556792393 1628363.0945167542 202.1000061035
0.0149293002 1628362.8596267700 202.5370025635
0.0095194904 1628362.7896194458 202.5240020752
-0.0285659209 1628362.2111930847 202.0760040283
-0.0369442292 1628362.1486167908 202.0720062256
-0.0436537117 1628362.0791664124 202.0720062256
-0.0520320199 1628362.0165901184 202.0740051270
-0.0604103282 1628361.9540138245 202.0820007324
-0.0691597089 1628361.8923683167 202.0870056152
1.5712049007 1628380.6943740845 191.5000000000
1.5533046722 1628380.4858398438 191.0890045166
1.5411854982 1628380.3463897705 190.6990051270
1.5357756615 1628380.2763824463 190.6060028076
1.5329632759 1628380.1998825073 190.4620056152
1.5245850086 1628380.1373062134 190.4720001221
1.5178755522 1628380.0678558350 190.4880065918
1.5094971657 1628380.0052795410 190.5850067139
1.5011188984 1628379.9427032471 190.6470031738
1.4953379631 1628379.8736267090 190.7380065918
1.4860310555 1628379.8106765747 190.7610015869
1.4802502394 1628379.7416000366 190.8390045166
1.4921243191 1628379.7118835449 191.7980041504
1.4863433838 1628379.6428070068 191.8000030518
1.4779651165 1628379.5802307129 191.7980041504
1.4712556601 1628379.5107879639 191.8000030518
1.4658458233 1628379.4407806396 191.7980041504
1.4487180710 1628379.3165588379 188.2570037842
1.4574675560 1628379.3782043457 191.7940063477
1.4516866207 1628379.3091278076 191.7920074463
1.4453482628 1628379.2387542725 191.7850036621
1.4365988970 1628379.1771011353 191.7790069580
1.4311890602 1628379.1071014404 191.7760009766
1.4224396944 1628379.0454483032 191.7790069580
1.4458167553 1628378.9869461060 191.7810058594
1.4365097284 1628378.9240036011 191.7870025635
1.4307289124 1628378.8549270630 191.7740020752
1.4253190756 1628378.7849197388 191.6820068359
1.4195382595 1628378.7158432007 191.6150054932
1.4131997824 1628378.6454696655 191.5390014648
1.4074189663 1628378.5763931274 191.4530029297
1.4020091295 1628378.5063858032 191.3860015869
1.3962283134 1628378.4373092651 191.3040008545
1.3898899555 1628378.3669281006 191.2920074463
1.3811404705 1628378.3052825928 191.2070007324
1.3786991835 1628378.2278518677 191.1100006104
1.2911732197 1628377.5198211670 187.7380065918
1.2824238539 1628377.4581756592 187.7420043945
1.2937706709 1628377.5133209229 190.1950073242
1.2853924036 1628377.4507446289 190.2530059814
1.2799825668 1628377.3807449341 190.2270050049
1.2589577436 1628377.2635726929 188.0390014648
1.2762416601 1628377.3038635254 190.1450042725
1.2678632736 1628377.2412872314 190.1580047607
1.2384601831 1628377.0615463257 186.6840057373
1.2356477976 1628376.9850387573 186.6840057373
1.2272695303 1628376.9224624634 186.6790008545
1.2269655466 1628376.5863571167 189.2640075684
1.2185872793 1628376.5237808228 189.2850036621
1.1919964552 1628376.4205398560 188.8860015869
1.1748687029 1628376.2963180542 186.6470031738
1.2094364166 1628376.3768997192 189.1150054932
1.2010581493 1628376.3143234253 189.1130065918
1.1952773333 1628376.2452468872 189.1170043945
1.1889388561 1628376.1748657227 189.1260070801
1.1718112230 1628376.0506439209 189.3450012207
1.1077512503 1628375.5372161865 186.6660003662
1.1023415327 1628375.4672164917 186.6730041504
1.0956320763 1628375.3977661133 186.6840057373
1.0902222395 1628375.3277587891 186.7030029297
1.1130720377 1628375.3541183472 188.0480041504
1.1072911024 1628375.2850418091 188.0440063477
1.1130720377 1628375.3541183472 190.0000000000
1.1072911024 1628375.2850418091 190.0690002441
1.1018813848 1628375.2150421143 190.0050048828
1.0899182558 1628374.9916534424 187.7290039063
1.1105719805 1628375.1097488403 190.3410034180
1.0815398693 1628374.9290771484 187.7180023193
1.1012650728 1628375.0467987061 190.3540039063
1.0260145664 1628374.3942947388 187.0310058594
1.0206047297 1628374.3242874146 187.0260009766
0.9828232527 1628374.0819702148 186.6210021973
0.9761137962 1628374.0125198364 186.6300048828
1.0321077108 1628374.2955017090 191.1060028076
1.0257692337 1628374.2251281738 191.1000061035
0.9764261246 1628373.8446502686 187.0520019531
1.0260815620 1628374.0572586060 191.4290008545
0.9477063417 1628373.4961090088 187.8370056152
0.9439654350 1628373.4192352295 187.8560028076
0.9303334355 1628373.2027206421 188.5090026855
0.9530271292 1628373.3130111694 192.1640014648
0.9472462535 1628373.2439346313 192.1750030518
0.9470009804 1628373.0747680664 192.4600067139
0.8919357061 1628372.7921600342 189.3200073242
0.9382516146 1628373.0131225586 192.4850006104
0.9119731784 1628372.7420196533 189.3630065918
0.8974125981 1628372.5251312256 189.9720001221
0.8540064692 1628372.1297988892 190.8560028076
0.8893465996 1628372.2946853638 193.2180023193
0.8456281424 1628372.0672225952 190.8560028076
0.8826371431 1628372.2252349854 193.2230072021
0.8803520203 1628372.0638656616 193.5350036621
0.8306965232 1628371.8512649536 191.4490051270
0.8716025949 1628372.0022201538 193.5610046387
0.8041728139 1628371.4109878540 192.3320007324
0.7983919978 1628371.3419113159 192.3450012207
0.7872012854 1628371.2028274536 192.9010009766
0.8217689991 1628371.2834091187 194.2810058594
0.7808629274 1628371.1324539185 192.9080047607
0.8130196333 1628371.2217636108 194.2870025635
0.7726407647 1628370.9859466553 194.6230010986
0.7956467271 1628370.9283676147 194.6170043945
0.7493308187 1628370.7074127197 193.8410034180
0.7435499430 1628370.6383361816 193.8470001221
0.7372115254 1628370.5679550171 194.3450012207
0.7314306498 1628370.4988784790 194.3650054932
0.7462144494 1628370.2947921753 195.3390045166
0.7369075418 1628370.2318496704 195.3580017090
0.7173385620 1628370.0301895142 195.3370056152
0.7020946145 1628369.9821014404 195.4880065918
0.7173385620 1628370.0301895142 196.4550018311
0.7076605558 1628369.9681701660 196.4550018311
