-0.0870802402 58973851.7866935730 169.4730072021
-0.2757865489 58973851.7186203003 178.3950042725
-0.2433892339 58973851.7572898865 176.5090026855
-0.0861185417 58973851.8806877136 169.5520019531
-0.2753159404 58973851.7646179199 178.3950042725
-0.2749169469 58973851.8036155701 178.3970031738
-0.0842872187 58973852.0596809387 169.3090057373
-0.0838063732 58973852.1066780090 169.2980041504
-0.1139248982 58973852.1929893494 169.5330047607
-0.1134440526 58973852.2399864197 169.5420074463
-0.1448080540 58973852.3023109436 170.7100067139
-0.1123288870 58973852.3489799500 170.4470062256
-0.1439282149 58973852.3883056641 170.9850006104
-0.1437645257 58973852.4043045044 171.9010009766
-0.1742820442 58973852.4516220093 171.9120025635
-0.1739648879 58973852.4826202393 172.3020019531
-0.1737193465 58973852.5066184998 173.1790008545
-0.1733203530 58973852.5456161499 173.1860046387
-0.1416058093 58973852.6152954102 170.5950012207
-0.2677962780 58973852.4995803833 176.5290069580
-0.2040015757 58973852.5769309998 173.6510009766
-0.2673972845 58973852.5385780334 176.5160064697
-0.2037662566 58973852.5999298096 174.5000000000
-0.2985593379 58973852.5228958130 178.4060058594
-0.2669982612 58973852.5775756836 176.5200042725
-0.2033672631 58973852.6389274597 174.4290008545
-0.2980785072 58973852.5698928833 178.4080047607
-0.2976794839 58973852.6088905334 178.4140014648
-0.2338847816 58973852.6862411499 175.6540069580
-0.2334039360 58973852.7332382202 175.6260070801
-0.2647577226 58973852.7965621948 176.2570037842
-0.2644405663 58973852.8275642395 176.5310058594
-0.2640415728 58973852.8665618896 176.5390014648
-0.2952036262 58973852.8508796692 178.4040069580
-0.2948046327 58973852.8898773193 178.3970031738
-0.1675706208 58973853.1075859070 171.8690032959
-0.1671716273 58973853.1465835571 171.8880004883
-0.2935257554 58973853.0148696899 178.4360046387
-0.2931983769 58973853.0468673706 178.4400024414
-0.2927175462 58973853.0938644409 178.4400024414
-0.1964921355 58973853.3108940125 172.2510070801
-0.1956122816 58973853.3968887329 172.2830047607
-0.1932898760 58973853.6238746643 173.1430053711
-0.2238074094 58973853.6711921692 173.1490020752
-0.2865688205 58973853.6948356628 176.5440063477
-0.2860879600 58973853.7418327332 176.5480041504
-0.2856889367 58973853.7808303833 176.5480041504
-0.2214134037 58973853.9051780701 173.6510009766
-0.3171681762 58973853.7341499329 178.5330047607
-0.2209325433 58973853.9521751404 173.6620025635
-0.3167691827 58973853.7731475830 178.5240020752
-0.3163701892 58973853.8121452332 178.5240020752
-0.3150913119 58973853.9371376038 178.5160064697
-0.3146923184 58973853.9761352539 178.5330047607
-0.3142933249 58973854.0151329041 178.5090026855
-0.2823332548 58973854.1088142395 176.5820007324
-0.2502094805 58973854.2184906006 174.3690032959
-0.3449642956 58973854.0474510193 178.7940063477
-0.2818523943 58973854.1558113098 176.5310058594
-0.3134134710 58973854.1011314392 178.5260009766
-0.2478972971 58973854.4444770813 174.9510040283
-0.2784966826 58973854.4837913513 175.0260009766
-0.3105283678 58973854.3831138611 177.7120056152
-0.2780976892 58973854.5227890015 175.1000061035
-0.3101293743 58973854.4221115112 177.7160034180
-0.3097303510 58973854.4611129761 177.7120056152
-0.2766551375 58973854.6637840271 175.6040039063
-0.3082980514 58973854.6011047363 177.4450073242
-0.2762561440 58973854.7027816772 175.5870056152
-0.3720927536 58973854.5237541199 179.5820007324
-0.3078990579 58973854.6401023865 177.4120025635
-0.3716937602 58973854.5627517700 179.5740051270
-0.3075000346 58973854.6791000366 177.4790039063
-0.3069373369 58973854.7340965271 176.5220031738
-0.3713663816 58973854.5947494507 179.7440032959
-0.3065383434 58973854.7730941772 176.5500030518
-0.3709673584 58973854.6337471008 179.7420043945
-0.3061393499 58973854.8120918274 176.5980072021
-0.3706502020 58973854.6647453308 179.8300018311
-0.3702512085 58973854.7037429810 179.8760070801
-0.3698521852 58973854.7427406311 179.9120025635
-0.3050139546 58973854.9220886230 176.8000030518
-0.3695350587 58973854.7737388611 180.0140075684
-0.3045330942 58973854.9690856934 176.8040008545
-0.3691360354 58973854.8127365112 180.0540008545
-0.3039806485 58973855.0230827332 176.4880065918
-0.3687370420 58973854.8517341614 180.0910034180
-0.3684096634 58973854.8837318420 180.2070007324
-0.3680106401 58973854.9227333069 180.2460021973
-0.3676935136 58973854.9537315369 180.2940063477
-0.3025380969 58973855.1640739441 176.9320068359
-0.3982928693 58973854.9930458069 180.3410034180
-0.3331374526 58973855.2033882141 176.9450073242
-0.3978938758 58973855.0320434570 180.3780059814
-0.3974948823 58973855.0710411072 180.4100036621
-0.3001440763 58973855.3980636597 176.5260009766
-0.3964513242 58973855.1730346680 180.6360015869
-0.3308252990 58973855.4293785095 176.6620025635
-0.3960523307 58973855.2120323181 180.6190032959
-0.3303444386 58973855.4763755798 176.5460052490
-0.3955714703 58973855.2590293884 180.5240020752
-0.3951724768 58973855.2980308533 180.4530029297
-0.3946916163 58973855.3450279236 180.3690032959
-0.3942210078 58973855.3910255432 180.2850036621
-0.3937401474 58973855.4380226135 180.2120056152
-0.3612173796 58973855.5866966248 177.9850006104
-0.3932592869 58973855.4850196838 180.1210021973
-0.3928602934 58973855.5240173340 180.0370025635
-0.3273877203 58973855.7653617859 176.5700073242
-0.3923794627 58973855.5710144043 179.9730072021
-0.3269887269 58973855.8043594360 176.6640014648
-0.3918986022 58973855.6180114746 179.8950042725
-0.3265078664 58973855.8513565063 176.5540008545
-0.3891772032 58973855.8839988708 179.0110015869
-0.3888600469 58973855.9149971008 179.0950012207
-0.3885428905 58973855.9459953308 179.1860046387
-0.3882257342 58973855.9769935608 179.2790069580
-0.3878267407 58973856.0159912109 179.3750000000
-0.3875811994 58973856.0399894714 179.5290069580
-0.3873458803 58973856.0629882813 179.7030029297
-0.3869468868 58973856.1019859314 179.7810058594
-0.3865478635 58973856.1409835815 179.7980041504
-0.3862204850 58973856.1729850769 179.8800048828
-0.3504340947 58973856.6406402588 176.5440063477
-0.3499532342 58973856.6876411438 176.5460052490
-0.3495542407 58973856.7266387939 176.5480041504
-0.3491552174 58973856.7656364441 176.5520019531
-0.3486743867 58973856.8126335144 176.5540008545
-0.3482753634 58973856.8516311646 176.5520019531
-0.3478763700 58973856.8906288147 176.5520019531
-0.3473955095 58973856.9376258850 176.5480041504
-0.3469965160 58973856.9766235352 176.5520019531
-0.3465975225 58973857.0156211853 176.5610046387
-0.3780665100 58973856.9699401855 177.5590057373
-0.3775959015 58973857.0159378052 177.5420074463
-0.3453186452 58973857.1406173706 176.5670013428
-0.3449196517 58973857.1796150208 176.5650024414
-0.3444388211 58973857.2266120911 176.5650024414
-0.3440397978 58973857.2656097412 176.5610046387
-0.3436408043 58973857.3046073914 176.5590057373
-0.3431599736 58973857.3516044617 176.5590057373
-0.3427609503 58973857.3906021118 176.5590057373
-0.3423619568 58973857.4295997620 176.5570068359
-0.3728794754 58973857.4769134521 176.5570068359
-0.3724804819 58973857.5159149170 176.5540008545
-0.3720814586 58973857.5549125671 176.5590057373
-0.3716006279 58973857.6019096375 176.5590057373
-0.3712016344 58973857.6409072876 176.5650024414
-0.3708026111 58973857.6799049377 176.5700073242
-0.3703933954 58973857.7199020386 176.5820007324
-0.3699227571 58973857.7658996582 176.6000061035
-0.3695953786 58973857.7978973389 176.6100006104
-0.3691145182 58973857.8448944092 176.6320037842
-0.3687973917 58973857.8758926392 176.7510070801
-0.3684802055 58973857.9068908691 176.7920074463
-0.3680812120 58973857.9458923340 176.8390045166
-0.3676822186 58973857.9848899841 176.8780059814
-0.3672831953 58973858.0238876343 176.9140014648
-0.3669660687 58973858.0548858643 176.9640045166
-0.3665568233 58973858.0948829651 176.9980010986
-0.3660862148 58973858.1408805847 177.0110015869
-0.3967571855 58973858.1731948853 177.0310058594
-0.3962763548 58973858.2201919556 177.0420074463
-0.3958773315 58973858.2591896057 177.0610046387
-0.3952430189 58973858.3211898804 176.8320007324
-0.3946803510 58973858.3761863708 176.6970062256
-0.3945984840 58973858.3841857910 177.0670013428
-0.3939641714 58973858.4461822510 176.8370056152
-0.3936470151 58973858.4771804810 176.9400024414
-0.3932480216 58973858.5161781311 176.9570007324
-0.3929206431 58973858.5481758118 177.0460052490
-0.3925216198 58973858.5871734619 177.0540008545
-0.3919691741 58973858.6411705017 176.9700012207
-0.3915701509 58973858.6801681519 176.9570007324
-0.3910893202 58973858.7271652222 176.9530029297
-0.3906902969 58973858.7661666870 176.9360046387
-0.3902094662 58973858.8131637573 176.9270019531
-0.3898104727 58973858.8521614075 176.9100036621
-0.3893296123 58973858.8991584778 176.8950042725
-0.3889306188 58973858.9381561279 176.8800048828
-0.3884497583 58973858.9851531982 176.8670043945
-0.3880507648 58973859.0241508484 176.8540039063
-0.3875699043 58973859.0711479187 176.8390045166
-0.3871709108 58973859.1101455688 176.8260040283
-0.3866900504 58973859.1571426392 176.8200073242
-0.3862910569 58973859.1961441040 176.8190002441
-0.3858920634 58973859.2351417542 176.8260040283
-0.4165732563 58973859.2664566040 176.9360046387
-0.4160105586 58973859.3214530945 176.8370056152
-0.4156934321 58973859.3524513245 176.9140014648
-0.4153660238 58973859.3844490051 177.0160064697
-0.4148135781 58973859.4384460449 176.8950042725
-0.4143327177 58973859.4854431152 176.8730010986
-0.4136881828 58973859.5484428406 176.7100067139
-0.4132891595 58973859.5874404907 176.6790008545
-0.4128083289 58973859.6344375610 176.6560058594
-0.4123377204 58973859.6804351807 176.6450042725
-0.4119284749 58973859.7204322815 176.6670074463
-0.4120921791 58973859.7044334412 177.0850067139
-0.0916010216 58973833.0667610168 183.9290008545
-0.0912020206 58973833.1057586670 183.9340057373
-0.0907211676 58973833.1527557373 183.9340057373
-0.0903221592 58973833.1917533875 183.9320068359
-0.0899231583 58973833.2307510376 183.9230041504
-0.0896060094 58973833.2617492676 183.9120025635
-0.0892070010 58973833.3007469177 183.8970031738
0.0654726103 58973833.0731544495 176.9140014648
0.0657897666 58973833.1041526794 176.8710021973
0.0661887676 58973833.1431503296 176.8390045166
0.0671504736 58973833.2371444702 176.6710052490
0.0674676225 58973833.2681427002 176.5950012207
0.0675494671 58973833.2761421204 176.4440002441
0.0679484680 58973833.3151397705 176.4400024414
0.0686646327 58973833.3851356506 176.5670013428
0.0693091676 58973833.4481353760 176.6320037842
-0.1337704211 58973835.0052909851 183.5950012207
0.0695444793 58973833.4711341858 176.5590057373
-0.1333714128 58973835.0442924500 183.5630035400
-0.0988638625 58973835.3869552612 182.6000061035
-0.0984648615 58973835.4259529114 182.5970001221
-0.0980556235 58973835.4659500122 182.5800018311
-0.0976566225 58973835.5049476624 182.5700073242
-0.0972576216 58973835.5439491272 182.5610046387
-0.0969404578 58973835.5749473572 182.5540008545
0.0461809784 58973834.3154144287 176.4380035400
-0.1271408349 58973835.6532592773 182.7030029297
0.0465799794 58973834.3544120789 176.4210052490
-0.1271408349 58973835.6532592773 182.5370025635
0.0468971394 58973834.3854103088 176.3910064697
-0.1263428330 58973835.7312545776 182.6970062256
-0.1261791438 58973835.7472534180 182.6150054932
-0.1257801354 58973835.7862510681 182.5950012207
0.0184564702 58973834.6357154846 176.9720001221
-0.1252992898 58973835.8332481384 182.6130065918
-0.1249002814 58973835.8722457886 182.6210021973
-0.1245012805 58973835.9112472534 182.6360015869
0.0186201595 58973834.6517143250 176.4190063477
-0.1240204275 58973835.9582443237 182.6470031738
-0.1236214265 58973835.9972419739 182.6560058594
-0.1232224330 58973836.0362396240 182.6580047607
-0.1228234172 58973836.0752372742 182.6580047607
-0.1224244237 58973836.1142349243 182.6560058594
-0.1220254228 58973836.1532325745 182.6540069580
-0.1216264218 58973836.1922302246 182.6470031738
-0.1212274134 58973836.2312278748 182.6340026855
-0.1208284125 58973836.2702255249 182.6320037842
-0.1204294115 58973836.3092231750 182.6260070801
-0.1197030172 58973836.3802223206 182.7870025635
-0.1193040237 58973836.4192199707 182.7850036621
-0.1189050078 58973836.4582176208 182.7910003662
-0.1186697036 58973836.4812164307 182.6940002441
-0.1183525473 58973836.5122146606 182.6790008545
-0.1173908487 58973836.6062088013 182.5480041504
0.0266104508 58973835.4326744080 176.4450073242
-0.1170736924 58973836.6372070313 182.5070037842
0.0270913001 58973835.4796714783 176.4810028076
-0.1167463064 58973836.6692047119 182.4510040283
0.0274902992 58973835.5186691284 176.4490051270
-0.1163473129 58973836.7082023621 182.4270019531
-0.1470285356 58973836.7395210266 182.3990020752
-0.1467113644 58973836.7705192566 182.3480072021
-0.1463942230 58973836.8015174866 182.2980041504
-0.1461486816 58973836.8255157471 182.2480010986
-0.1457496732 58973836.8645133972 182.2180023193
-0.1145159900 58973836.8871955872 182.1250000000
-0.1141885966 58973836.9191932678 182.0870056152
-0.0866277814 58973836.5828933716 180.2810058594
-0.1138714403 58973836.9501914978 182.0410003662
-0.1135542914 58973836.9811897278 181.9880065918
-0.1132371277 58973837.0121879578 181.9600067139
-0.1129915863 58973837.0361862183 181.8520050049
-0.1126744375 58973837.0671844482 181.8280029297
-0.1122754291 58973837.1061820984 181.8220062256
-0.1116308868 58973837.1691780090 181.7160034180
-0.1422302723 58973837.2084960938 181.7050018311
-0.0842337683 58973836.8168792725 179.5700073242
-0.1110784337 58973837.2231750488 181.5720062256
-0.0837529227 58973836.8638801575 179.6000061035
-0.1106794178 58973837.2621765137 181.5700073242
-0.0835176110 58973836.8868789673 179.5160064697
-0.1104338765 58973837.2861747742 181.4960021973
-0.0825559124 58973836.9808731079 179.1260070801
-0.0820750594 58973837.0278701782 179.1300048828
0.0074491398 58973836.5899314880 176.4620056152
0.0079197604 58973836.6359291077 176.4510040283
-0.0226796102 58973836.6752433777 176.4530029297
-0.0489998199 58973837.2305412292 178.4290008545
-0.0204390604 58973836.8942337036 176.4850006104
-0.0486008190 58973837.2695388794 178.4140014648
-0.0196410492 58973836.9722290039 176.4290008545
-0.1050013080 58973837.8171463013 180.6150054932
-0.1046023071 58973837.8561439514 180.6020050049
-0.0472401194 58973837.4025344849 177.9700012207
-0.0468411185 58973837.4415321350 177.9270019531
-0.1038042977 58973837.9341392517 180.3520050049
-0.1034052968 58973837.9731369019 180.3480072021
-0.1030063033 58973838.0121345520 180.3240051270
-0.0450814106 58973837.6135215759 177.4570007324
-0.0446824096 58973837.6525192261 177.4570007324
-0.0447642617 58973837.6445198059 177.1320037842
-0.0443652608 58973837.6835174561 177.1100006104
-0.0439662486 58973837.7225151062 177.0870056152
-0.0436388701 58973837.7545127869 177.0500030518
-0.0433217101 58973837.7855110168 176.4620056152
-0.0429227091 58973837.8245124817 176.4550018311
-0.0423600115 58973837.8795089722 176.5160064697
-0.0418893918 58973837.9255065918 176.5140075684
-0.0985251889 58973838.4501113892 179.5290069580
-0.0414801612 58973837.9655036926 176.5370025635
-0.0981261879 58973838.4891090393 179.5260009766
-0.0407640003 58973838.0354995728 176.6900024414
-0.0399659984 58973838.1134948730 176.9420013428
-0.0399659984 58973838.1134948730 176.6510009766
-0.0395669900 58973838.1524925232 176.6390075684
-0.0692865178 58973838.2778053284 177.1580047607
-0.0965301767 58973838.6451034546 179.2230072021
-0.0690512136 58973838.3008041382 177.0410003662
-0.0961311832 58973838.6841011047 179.1950073242
-0.0380528308 58973838.3004875183 176.7510070801
-0.0378891416 58973838.3164863586 176.6000061035
-0.0374082886 58973838.3634834290 176.5980072021
-0.0660126507 58973838.5977859497 177.8470001221
-0.0656136498 58973838.6367874146 177.8480072021
-0.0652146488 58973838.6757850647 177.8240051270
-0.0358122811 58973838.5194740295 176.5350036621
-0.0949341729 58973838.8010940552 178.1260070801
-0.0944533199 58973838.8480911255 178.1390075684
-0.0940543190 58973838.8870887756 178.1280059814
-0.0655317977 58973838.6447868347 176.4960021973
-0.0651327968 58973838.6837844849 176.4830017090
-0.0926936194 58973839.0200843811 178.4810028076
-0.0647338033 58973838.7227821350 176.4850006104
-0.0922127664 58973839.0670814514 178.4730072021
-0.0026169501 58973838.6361427307 174.7720031738
-0.0021361001 58973838.6831398010 174.7720031738
-0.0018905600 58973838.7071380615 174.6430053711
-0.0016552500 58973838.7301368713 174.5010070801
-0.0893379003 58973839.3480644226 178.4600067139
-0.0011744000 58973838.7771339417 174.5420074463
-0.1199372783 58973839.3873786926 178.4530029297
-0.1195382699 58973839.4263801575 178.4470062256
-0.0577768311 58973839.4027442932 176.4770050049
-0.1166531816 58973839.7083625793 178.3950042725
-0.0572959818 58973839.4497413635 176.5520019531
-0.1162541807 58973839.7473602295 178.3840026855
-0.1157733276 58973839.7943611145 178.3840026855
-0.1154561713 58973839.8253593445 178.3600006104
0.0034601700 58973839.2301101685 173.4490051270
-0.0858184993 58973839.6920471191 176.4830017090
0.0039410200 58973839.2771072388 173.4380035400
-0.0853376463 58973839.7390441895 176.4790039063
-0.0849386379 58973839.7780418396 176.4770050049
0.0045855599 58973839.3401031494 173.2680053711
-0.1124994606 58973840.1143417358 178.3600006104
-0.1120186076 58973840.1613388062 178.3540039063
-0.0810202286 58973840.1610221863 176.4850006104
-0.0806212276 58973840.2000198364 176.4790039063
-0.1397813708 58973840.5756454468 178.3730010986
-0.0799050704 58973840.2700157166 176.0540008545
-0.1393823773 58973840.6146430969 178.3600006104
-0.0799050704 58973840.2700157166 175.7070007324
-0.1389833689 58973840.6536407471 178.3600006104
0.0098544396 58973839.8550758362 172.1790008545
0.0100181401 58973839.8710746765 171.9400024414
0.0104171401 58973839.9100761414 171.9160003662
-0.0478631482 58973840.3716964722 174.8320007324
-0.0763038173 58973840.6219978333 176.4730072021
-0.0474641509 58973840.4106941223 174.8430023193
-0.0759048164 58973840.6609954834 176.4700012207
-0.1065041870 58973840.7003135681 176.4640045166
-0.1348296553 58973841.0596199036 178.3480072021
-0.1344306469 58973841.0986175537 178.3470001221
-0.0155040696 58973840.5043716431 173.4380035400
-0.1340316385 58973841.1376152039 178.3260040283
-0.0151050696 58973840.5433692932 173.4080047607
-0.1029847786 58973841.0442924500 176.4900054932
-0.1025857776 58973841.0832901001 176.4920043945
-0.1021867767 58973841.1222915649 176.4880065918
0.0172922593 58973840.5820388794 171.9440002441
-0.0139899096 58973840.6523628235 172.1430053711
-0.0135090603 58973840.6993598938 172.1390075684
0.0186529607 58973840.7150306702 170.7550048828
0.0192054305 58973840.7690277100 170.8730010986
0.0496513397 58973840.7147140503 170.0050048828
0.0501219593 58973840.7607116699 170.0160064697
-0.1582367569 58973841.8018989563 178.3800048828
-0.1578275114 58973841.8418960571 178.3710021973
-0.1574285030 58973841.8808937073 178.3710021973
0.0522090495 58973840.9647026062 169.3970031738
0.0526796617 58973841.0107002258 169.3780059814
-0.1264301240 58973841.8805770874 176.4850006104
-0.1260311306 58973841.9195747375 176.4770050049
-0.1255502850 58973841.9665718079 176.4770050049
0.0551657602 58973841.2536849976 169.5290069580
0.0556363799 58973841.2996826172 169.4960021973
0.0250472296 58973841.3400001526 169.4680023193
-0.1527939439 58973842.3338699341 178.3580017090
-0.1523949355 58973842.3728675842 178.3520050049
-0.1519959420 58973842.4118652344 178.3480072021
-0.1217137203 58973842.3415527344 176.4960021973
-0.1213147119 58973842.3805503845 176.4880065918
0.0577950813 58973841.5106735229 168.0460052490
-0.1209157109 58973842.4195480347 176.4770050049
0.0584396198 58973841.5736694336 168.1670074463
0.0587567799 58973841.6046676636 168.0350036621
0.0317586586 58973841.9959640503 168.7120056152
0.0321576595 58973842.0349617004 168.6150054932
0.0325566605 58973842.0739593506 168.5980072021
-0.1762828827 58973843.0681495667 178.3760070801
-0.1758838743 58973843.1071472168 178.3600006104
-0.1754848808 58973843.1461448669 178.3600006104
0.0947171077 58973842.0893249512 166.7740020752
0.0641893521 58973842.1356391907 166.8370056152
-0.1450389773 58973843.0918312073 176.4920043945
0.0646701977 58973842.1826400757 166.8240051270
-0.1445683539 58973843.1378288269 176.4920043945
-0.1441693455 58973843.1768264771 176.4940032959
-0.2019203156 58973843.5924377441 178.3560028076
-0.2014496922 58973843.6384353638 178.3630065918
-0.2010506839 58973843.6774368286 178.3560028076
-0.1394529343 58973843.6378021240 176.5030059814
0.0407106392 58973842.8709182739 167.6510009766
-0.1390539259 58973843.6767997742 176.5110015869
-0.1948098838 58973844.2874031067 178.3910064697
-0.1944108754 58973844.3264007568 178.3840026855
-0.1940118670 58973844.3653984070 178.3820037842
0.1065439582 58973843.2452659607 164.2480010986
0.1070248112 58973843.2922630310 164.2330017090
-0.1632488072 58973844.3420829773 176.4850006104
-0.1627781838 58973844.3880805969 176.4830017090
-0.1623791754 58973844.4270782471 176.4810028076
0.0490180813 58973843.6828765869 166.8040008545
0.0494170785 58973843.7218742371 166.6790008545
0.1114956811 58973843.7292404175 162.9230041504
-0.2205776274 58973844.8966979980 178.3800048828
0.1120583788 58973843.7842369080 162.9660034180
-0.2201786190 58973844.9356956482 178.3750000000
0.1125392318 58973843.8312339783 162.9530029297
-0.2197796255 58973844.9746932983 178.3780059814
-0.1886611432 58973844.8883705139 176.5050048828
-0.1882621348 58973844.9273681641 176.5010070801
-0.1877812892 58973844.9743652344 176.5070037842
0.0569367409 58973844.4568367004 165.7760009766
0.0574175902 58973844.5038337708 165.7920074463
0.0578882098 58973844.5498313904 165.7570037842
0.1481721699 58973844.2838935852 161.6820068359
0.1486530155 58973844.3308906555 161.6920013428
0.1492054909 58973844.3848876953 161.6950073242
-0.2453351915 58973845.5069847107 178.3990020752
-0.2449361831 58973845.5459823608 178.3930053711
-0.2445371896 58973845.5849800110 178.3950042725
-0.2439847142 58973845.6389770508 178.5240020752
-0.2436573356 58973845.6709747314 178.5110015869
-0.1814586371 58973845.5923347473 176.5050048828
0.1518450379 58973844.6428756714 161.0290069580
-0.1809880137 58973845.6383323669 176.5010070801
0.1523258835 58973844.6898727417 161.0180053711
-0.1806606352 58973845.6703300476 176.4980010986
-0.2414986342 58973845.8819656372 178.5590057373
-0.2410996258 58973845.9209632874 178.5500030518
-0.2405471653 58973845.9749603271 178.8000030518
-0.2400663048 58973846.0219573975 178.8580017090
-0.2399844676 58973846.0299568176 178.3860015869
-0.2395854592 58973846.0689544678 178.3880004883
-0.2391046137 58973846.1159515381 178.3890075684
0.0660421923 58973845.3467903137 164.8020019531
0.1262792349 58973845.1741638184 161.7660064697
-0.2385419160 58973846.1709480286 178.7250061035
0.1268419325 58973845.2291603088 161.7400054932
-0.2079425454 58973846.1316337585 176.5260009766
-0.2075435370 58973846.1706314087 176.5200042725
-0.2070626915 58973846.2176284790 176.5180053711
-0.2362297475 58973846.3969383240 178.4100036621
-0.2358307540 58973846.4359359741 178.4010009766
-0.2662664354 58973846.4912490845 178.7460021973
-0.2657855749 58973846.5382461548 178.7460021973
-0.2049858272 58973846.4206199646 176.5000000000
-0.2654684186 58973846.5692443848 178.5800018311
-0.2651512623 58973846.6002426147 178.4510040283
-0.2341528833 58973846.5999259949 177.6190032959
-0.2642714083 58973846.6862411499 178.5700073242
-0.2032261342 58973846.5926094055 176.6040039063
-0.2637905777 58973846.7332382202 178.5850067139
-0.2028271258 58973846.6316070557 176.6100006104
-0.2633915544 58973846.7722358704 178.5700073242
0.0419625305 58973846.1210784912 163.8890075684
0.0424433798 58973846.1680755615 163.8690032959
-0.2622661591 58973846.8822288513 178.3840026855
-0.2321476489 58973846.7959175110 176.5000000000
-0.2618671656 58973846.9212265015 178.3890075684
-0.2604348361 58973847.0612182617 178.7420043945
-0.2877501249 58973847.4215164185 178.7350006104
-0.2564345896 58973847.4521980286 178.4040069580
-0.2560355961 58973847.4911956787 178.4060058594
-0.2866349816 58973847.5305137634 178.4080047607
-0.2253543735 58973847.4598808289 176.5240020752
0.0508326590 58973846.9880294800 163.9100036621
-0.2861541212 58973847.5775108337 178.6540069580
0.0513135083 58973847.0350303650 163.9010009766
0.0517943613 58973847.0820274353 163.8990020752
0.0518762097 58973847.0900268555 162.7100067139
0.0523468181 58973847.1360244751 162.7700042725
-0.2824812531 58973847.9364891052 178.3910064697
-0.2820822597 58973847.9754905701 178.3860015869
-0.2816832364 58973848.0144882202 178.3890075684
-0.2513191700 58973847.9521713257 176.4700012207
-0.2812842429 58973848.0534858704 178.3090057373
-0.2508383393 58973847.9991722107 176.6020050049
-0.2504393160 58973848.0381698608 176.5160064697
0.0888262466 58973847.5736732483 161.0500030518
0.0893070996 58973847.6206703186 161.0260009766
-0.0030101200 58973847.7856254578 164.8260040283
-0.0025292700 58973847.8326225281 164.8240051270
-0.0020484200 58973847.8796195984 164.8300018311
0.0605826490 58973847.9409828186 161.7030029297
0.0610634983 58973847.9879798889 161.7760009766
-0.3066427708 58973848.7027778625 178.3950042725
-0.3062437475 58973848.7417755127 178.3990020752
-0.3058447540 58973848.7807731628 178.3990020752
-0.2432470471 58973848.7411308289 176.5500030518
0.0659435987 58973848.4649543762 161.0220031738
-0.0255373698 58973848.6138992310 165.7790069580
0.0664960667 58973848.5189514160 161.0180053711
-0.0250565205 58973848.6608963013 165.7980041504
0.0669769198 58973848.5659484863 161.0370025635
-0.0245756693 58973848.7078933716 165.8070068359
-0.0240948200 58973848.7548904419 165.7960052490
0.0381372496 58973848.7772560120 161.6880035400
0.0386180989 58973848.8242530823 161.6860046387
0.0390989408 58973848.8712501526 161.6920013428
-0.3016910255 58973849.1867523193 178.3950042725
0.0396514088 58973848.9252471924 161.7070007324
-0.3012920320 58973849.2257499695 178.3880004883
-0.3008930385 58973849.2647476196 178.3930053711
-0.2691300213 58973849.2414245605 176.5760040283
-0.2683320045 58973849.3194198608 176.4900054932
-0.0807790980 58973849.3725013733 166.6560058594
0.0128169795 58973849.3325424194 162.9380035400
-0.0802982524 58973849.4194984436 166.7230072021
0.0132978298 58973849.3795394897 162.9040069580
0.0138502996 58973849.4335365295 162.9810028076
-0.0792649314 58973849.5204963684 166.8000030518
0.0143311499 58973849.4805335999 162.9420013428
-0.0788659304 58973849.5594940186 166.8000030518
-0.3244535923 58973849.9920272827 178.3200073242
-0.2935370505 58973849.9837112427 176.5690002441
-0.3240545690 58973850.0310249329 178.3890075684
-0.0436319895 58973849.9731521606 164.2680053711
-0.3236555755 58973850.0700225830 178.3910064697
-0.0431511402 58973850.0201530457 164.2830047607
-0.1031426489 58973850.2167739868 167.6710052490
-0.1026720330 58973850.2627716064 167.6540069580
-0.1017103270 58973850.3567695618 167.7870025635
-0.1012294814 58973850.4037666321 167.7850036621
-0.0702311099 58973850.4034500122 165.4750061035
-0.3199008703 58973850.4370040894 178.3840026855
-0.0697502568 58973850.4504470825 165.4850006104
-0.3195018470 58973850.4760017395 178.3800048828
-0.3191028535 58973850.5149993896 178.3860015869
-0.2880226374 58973850.5226821899 176.5590057373
-0.0687885582 58973850.5444412231 165.6000061035
-0.0960322171 58973850.9117393494 166.7460021973
-0.0955513716 58973850.9587364197 166.7440032959
-0.1257517338 58973851.0370483398 168.6210021973
-0.0945999026 58973851.0517311096 166.9160003662
-0.0941190496 58973851.0987281799 166.9080047607
-0.1563893706 58973851.1703720093 168.7500000000
-0.1559085250 58973851.2173690796 168.7590026855
-0.3118287325 58973851.2259635925 176.5130004883
-0.3426634073 58973851.2422790527 178.3800048828
-0.3114297390 58973851.2649612427 176.6100006104
-0.3422644138 58973851.2812767029 178.3670043945
-0.3110307157 58973851.3039588928 176.5160064697
-0.3417835832 58973851.3282737732 178.3840026855
-0.1520719528 58973851.5923500061 168.2140045166
-0.1516013443 58973851.6383438110 168.2330017090
-0.1511204839 58973851.6853446960 168.2290039063
-0.1813924760 58973851.7566566467 169.4790039063
-0.1809218526 58973851.8026542664 169.4790039063
-0.3691090941 58973851.6875724792 178.3840026855
-0.3067849278 58973851.7189369202 176.5090026855
-0.3687100708 58973851.7265701294 178.3860015869
-0.3682292402 58973851.7735671997 178.3840026855
-0.1796430051 58973851.9276466370 169.6620025635
-0.1791621447 58973851.9746437073 169.5910034180
-0.1785994619 58973852.0296440125 169.2810058594
-0.1781186163 58973852.0766410828 169.2850036621
-0.1768397540 58973852.2016334534 169.5520019531
-0.1763588935 58973852.2486305237 169.5570068359
-0.2067229748 58973852.3109436035 170.6950073242
-0.2060784250 58973852.3739433289 170.0670013428
-0.2058431208 58973852.3969421387 171.0160064697
-0.2366777956 58973852.4132575989 171.8910064697
-0.2362788022 58973852.4522552490 172.1430053711
-0.2358797938 58973852.4912528992 172.3260040283
-0.2676427960 58973852.5145797729 173.1430053711
-0.2039197236 58973852.5849304199 170.5110015869
-0.2035207152 58973852.6239280701 170.5540008545
-0.3297111690 58973852.5082130432 176.5010070801
-0.2669164240 58973852.5855751038 173.7530059814
-0.3293121755 58973852.5472106934 176.5160064697
-0.2976794839 58973852.6088905334 174.3800048828
-0.3603924215 58973852.5395278931 178.3970031738
-0.3289131820 58973852.5862083435 176.6280059814
-0.2332402468 58973852.7492408752 170.9170074463
-0.3599933982 58973852.5785255432 178.4170074463
-0.2327593863 58973852.7962379456 170.9810028076
-0.3915927410 58973852.6178512573 178.4170074463
-0.3277161717 58973852.7032051086 175.5740051270
-0.3911937177 58973852.6568489075 178.4270019531
-0.3270818591 58973852.7652015686 176.2850036621
-0.3266828656 58973852.8041992188 176.2960052490
-0.3263554573 58973852.8361968994 176.5350036621
-0.3568730056 58973852.8835105896 176.5370025635
-0.3891168535 58973852.8598403931 178.4080047607
-0.3887178600 58973852.8988380432 178.4140014648
-0.2614838481 58973853.1165466309 171.8600006104
-0.3883188665 58973852.9378356934 178.4140014648
-0.2610029876 58973853.1635437012 171.8320007324
-0.3879198730 58973852.9768333435 178.4160003662
-0.3874390125 58973853.0238304138 178.4170074463
-0.3870400190 58973853.0628280640 178.4250030518
-0.2594069839 58973853.3195381165 172.2910003662
-0.2589261532 58973853.3665351868 172.3090057373
-0.2585271299 58973853.4055328369 172.3090057373
-0.2871314883 58973853.6398353577 173.1060028076
-0.2866506577 58973853.6868362427 173.1020050049
-0.3480028808 58973853.7504653931 176.5540008545
-0.3476038575 58973853.7894630432 176.5440063477
-0.4110814333 58973853.7431106567 178.5260009766
-0.3471229970 58973853.8364601135 176.5260009766
-0.3148457706 58973853.9611358643 173.6820068359
-0.4106824100 58973853.7821083069 178.5200042725
-0.4102834165 58973853.8211059570 178.5290069580
-0.4098025560 58973853.8681030273 178.5330047607
-0.4094035625 58973853.9071006775 178.5410003662
-0.4090045691 58973853.9460983276 178.5480041504
-0.4086055458 58973853.9850997925 178.5500030518
-0.4082065523 58973854.0240974426 178.5670013428
-0.4078893960 58973854.0550956726 178.6950073242
-0.4073266983 58973854.1100921631 178.4810028076
-0.3408924341 58973854.4454307556 175.0260009766
-0.3404116035 58973854.4924278259 175.0480041504
-0.4044518173 58973854.3910751343 177.6840057373
-0.3400125802 58973854.5314254761 175.1060028076
-0.4039709866 58973854.4380760193 177.6900024414
-0.4035719931 58973854.4770736694 177.6860046387
-0.4030911326 58973854.5240707397 177.6000061035
-0.3709673584 58973854.6337471008 175.5480041504
-0.4026921391 58973854.5630683899 177.5260009766
-0.3705683649 58973854.6727447510 175.5570068359
-0.4344066679 58973854.4933891296 179.5910034180
-0.4022112787 58973854.6100654602 177.5180053711
-0.4340076745 58973854.5323867798 179.5950012207
-0.4336905181 58973854.5633850098 179.7160034180
-0.4332915246 58973854.6023826599 179.7200012207
-0.3694531918 58973854.7817382813 176.5420074463
-0.4328925014 58973854.6413803101 179.7350006104
-0.3689723611 58973854.8287353516 176.4810028076
-0.4324935079 58973854.6803779602 179.8240051270
-0.4631644785 58973854.7126922607 179.9010009766
-0.4627654850 58973854.7516937256 179.9250030518
-0.4624483287 58973854.7826919556 180.0390014648
-0.3983747065 58973854.9850463867 176.7160034180
-0.4620493352 58973854.8216896057 180.0690002441
-0.3979757130 58973855.0240440369 176.7100067139
-0.4616503417 58973854.8606872559 180.0780029297
-0.3974948823 58973855.0710411072 176.5800018311
-0.4612513185 58973854.8996849060 180.0980072021
-0.3968503177 58973855.1340370178 176.9060058594
-0.3964513242 58973855.1730346680 176.9210052490
-0.3959704638 58973855.2200317383 176.8950042725
-0.3936583102 58973855.4460220337 176.5290069580
-0.3931774497 58973855.4930191040 176.5290069580
-0.3927784562 58973855.5320167542 176.5310058594
-0.4242576659 58973855.4853363037 177.7960052490
-0.4565349221 58973855.3606605530 180.3260040283
-0.4238586724 58973855.5243339539 177.8730010986
-0.4560540617 58973855.4076576233 180.2330017090
-0.4235415161 58973855.5553321838 177.9940032959
-0.4556550682 58973855.4466552734 180.1730041504
-0.4231323004 58973855.5953292847 178.0480041504
-0.3911005855 58973855.6960067749 176.5390014648
-0.4551742077 58973855.4936523438 180.1080017090
-0.3907015920 58973855.7350044250 176.5630035400
-0.4546933472 58973855.5406494141 180.0310058594
-0.3902207315 58973855.7820053101 176.5540008545
-0.4542125165 58973855.5876464844 179.8950042725
-0.4538135231 58973855.6266479492 179.8760070801
-0.4533326626 58973855.6736450195 179.7870025635
-0.4528518021 58973855.7206420898 179.7030029297
-0.4523811936 58973855.7666397095 179.6170043945
-0.4517366588 58973855.8296356201 179.3280029297
-0.4511739612 58973855.8846321106 179.0630035400
-0.4507749379 58973855.9236297607 179.1470031738
-0.4505396485 58973855.9466285706 179.2960052490
-0.4822207987 58973855.9779548645 179.4550018311
-0.4818218052 58973856.0169525146 179.4680023193
-0.4814228117 58973856.0559501648 179.4790039063
-0.4810954332 58973856.0879478455 179.5780029297
-0.4136278331 58973856.5242805481 176.5650024414
-0.4131470025 58973856.5712814331 176.5610046387
-0.4127479792 58973856.6102790833 176.5610046387
-0.4122671485 58973856.6572761536 176.5630035400
-0.4118681252 58973856.6962738037 176.5610046387
-0.4114691317 58973856.7352714539 176.5590057373
-0.4109883010 58973856.7822685242 176.5570068359
-0.4105892777 58973856.8212661743 176.5540008545
-0.4101902843 58973856.8602638245 176.5540008545
-0.4097094238 58973856.9072608948 176.5520019531
-0.4403088093 58973856.9465789795 176.5500030518
-0.4399097860 58973856.9855766296 176.5540008545
-0.4395107925 58973857.0245742798 176.5540008545
-0.4399097860 58973856.9855766296 177.5440063477
-0.4386309385 58973857.1105690002 176.5500030518
-0.4382319450 58973857.1495666504 176.5500030518
-0.4377511144 58973857.1965637207 176.5500030518
-0.4373520911 58973857.2355613708 176.5500030518
-0.4368712604 58973857.2825584412 176.5520019531
-0.4364722371 58973857.3215560913 176.5630035400
-0.4360732436 58973857.3605537415 176.5760040283
-0.4356742501 58973857.3995552063 176.5950012207
-0.4352752268 58973857.4385528564 176.6190032959
-0.4348762333 58973857.4775505066 176.6320037842
-0.4344772398 58973857.5165481567 176.6750030518
-0.4340782166 58973857.5555458069 176.7180023193
-0.4336690009 58973857.5955429077 176.7290039063
-0.4332699776 58973857.6345405579 176.7500000000
-0.4328709841 58973857.6735382080 176.7700042725
-0.4324719906 58973857.7125358582 176.7870025635
-0.4320729971 58973857.7515335083 176.8110046387
-0.4635904729 58973857.7988586426 176.8190002441
-0.4632733166 58973857.8298568726 176.8560028076
-0.4628742933 58973857.8688545227 176.8950042725
-0.4625571370 58973857.8998565674 176.9960021973
-0.4621581435 58973857.9388542175 177.0350036621
-0.4617591500 58973857.9778518677 177.0700073242
-0.4614317715 58973858.0098495483 177.1540069580
-0.4610327482 58973858.0488471985 177.1560058594
-0.4605518878 58973858.0958442688 177.1540069580
-0.4601528943 58973858.1348419189 177.1490020752
-0.4596822858 58973858.1808395386 177.1380004883
-0.4592730403 58973858.2208366394 177.1260070801
-0.4588024318 58973858.2668342590 177.1130065918
-0.4584034383 58973858.3058319092 177.0980072021
-0.4579225779 58973858.3528327942 177.0850067139
-0.4575235844 58973858.3918304443 177.0720062256
-0.4571245611 58973858.4308280945 177.0610046387
-0.4566437304 58973858.4778251648 177.0610046387
-0.4562447071 58973858.5168228149 177.1060028076
-0.4557638764 58973858.5638198853 177.0110015869
-0.4553648829 58973858.6028175354 177.0760040283
-0.4548840225 58973858.6498146057 176.9680023193
-0.4854015410 58973858.6971282959 176.9570007324
-0.4850025475 58973858.7361297607 176.9470062256
-0.4845216870 58973858.7831268311 176.9360046387
-0.4841226935 58973858.8221244812 176.9230041504
-0.4836418629 58973858.8691215515 176.9100036621
-0.4832428396 58973858.9081192017 176.8930053711
-0.4827619791 58973858.9551162720 176.8780059814
-0.4823629856 58973858.9941139221 176.8630065918
-0.4818821251 58973859.0411109924 176.8520050049
-0.4814831316 58973859.0801086426 176.8390045166
-0.4810023010 58973859.1271095276 176.8260040283
-0.4806032777 58973859.1661071777 176.8170013428
-0.4801224470 58973859.2131042480 176.8170013428
-0.4797234535 58973859.2521018982 176.8200073242
-0.4794062674 58973859.2831001282 176.8990020752
-0.4790072739 58973859.3220977783 176.9100036621
-0.4785264432 58973859.3690948486 176.8990020752
-0.4779637158 58973859.4240913391 176.7660064697
-0.4774828851 58973859.4710884094 176.7290039063
-0.4770122468 58973859.5170860291 176.7100067139
-0.4766132534 58973859.5560836792 176.7050018311
-0.4761324227 58973859.6030845642 176.7010040283
-0.4757333994 58973859.6420822144 176.6750030518
-0.4752525687 58973859.6890792847 176.6450042725
-0.1607082039 58973832.3724288940 183.8860015869
-0.1603091955 58973832.4114303589 183.8840026855
-0.1599102020 58973832.4504280090 183.8910064697
-0.1595111936 58973832.4894256592 183.8860015869
-0.1591121852 58973832.5284233093 183.8860015869
-0.1587131917 58973832.5674209595 183.8780059814
-0.0279597696 58973833.1291122437 176.8190002441
-0.0275607705 58973833.1681098938 176.7890014648
-0.0273254607 58973833.1911087036 176.7310028076
-0.0268446095 58973833.2381057739 176.7180023193
-0.0265274607 58973833.2691040039 176.6880035400
-0.0264456104 58973833.2771034241 176.5070037842
-0.0260466095 58973833.3161010742 176.4830017090
-0.0255657602 58973833.3630981445 176.5070037842
-0.0252486002 58973833.3940963745 176.4400024414
-0.0246859100 58973833.4490966797 176.5220031738
-0.0241232105 58973833.5040931702 176.5590057373
-0.0230899006 58973833.6050872803 176.4400024414
-0.0226090495 58973833.6520843506 176.4400024414
-0.0222100392 58973833.6910820007 176.4230041504
-0.0217291992 58973833.7380790710 176.4340057373
-0.1950176507 58973835.1769294739 182.5970001221
-0.1945368052 58973835.2239265442 182.6250000000
-0.1941377968 58973835.2629241943 182.6080017090
-0.0487273186 58973834.1293754578 176.4440002441
-0.0483283103 58973834.1683731079 176.4360046387
-0.0478474684 58973834.2153739929 176.4380035400
-0.0756920725 58973834.6216773987 176.9730072021
-0.0752112195 58973834.6686744690 176.9720001221
-0.0429775901 58973834.6913490295 176.4660034180
-0.0424967408 58973834.7383460999 176.4570007324
-0.0420977399 58973834.7773437500 176.4530029297
-0.0416987315 58973834.8163414001 176.4380035400
-0.1864646673 58973836.0128860474 182.2030029297
-0.1852574348 58973836.1308784485 181.7920074463
-0.1843775809 58973836.2168731689 181.6390075684
-0.1841422766 58973836.2398719788 181.5160064697
-0.1837432683 58973836.2788696289 181.5220031738
-0.1833442599 58973836.3178672791 181.5260009766
-0.0684997886 58973835.3246421814 176.4190063477
-0.1828634143 58973836.3648643494 181.5370025635
-0.1824644059 58973836.4038658142 181.5420074463
-0.1820654124 58973836.4428634644 181.5460052490
-0.1816664040 58973836.4818611145 181.5460052490
-0.1812674105 58973836.5208587646 181.5440063477
-0.2118667811 58973836.5601730347 181.5420074463
-0.2114677727 58973836.5991706848 181.5420074463
-0.2109869272 58973836.6461677551 181.5440063477
-0.2106697708 58973836.6771659851 181.5390014648
-0.2102605402 58973836.7171630859 181.5310058594
-0.2095443755 58973836.7871627808 181.6620025635
-0.0927048996 58973835.9889259338 177.4120025635
-0.2091453820 58973836.8261604309 181.6660003662
-0.0923058987 58973836.0279235840 177.4210052490
-0.2087463737 58973836.8651580811 181.6670074463
-0.0626682192 58973835.8946113586 176.4420013428
-0.2083473653 58973836.9041557312 181.6750030518
-0.0932675898 58973835.9339256287 176.4570007324
-0.2079483718 58973836.9431533813 181.6770019531
-0.2074675262 58973836.9901504517 181.6840057373
-0.2071503699 58973837.0211486816 181.6710052490
-0.2069048285 58973837.0451469421 181.5540008545
-0.2063523531 58973837.0991439819 181.6390075684
-0.2059533596 58973837.1381416321 181.6430053711
-0.2049916536 58973837.2321395874 181.4900054932
-0.1458315253 58973836.8565139771 179.4140014648
-0.2046744972 58973837.2631378174 181.4530029297
-0.1451869756 58973836.9195098877 179.5200042725
-0.2043471187 58973837.2951354980 181.3990020752
-0.1450335085 58973836.9345092773 179.3930053711
-0.2039481103 58973837.3341331482 181.3690032959
-0.2036309540 58973837.3651313782 181.3430023193
-0.0875894800 58973836.4888992310 176.4380035400
-0.2033137977 58973837.3961296082 181.2810058594
-0.1443071365 58973837.0055046082 179.1020050049
-0.2029966563 58973837.4271278381 181.2250061035
-0.2026692629 58973837.4591255188 181.1750030518
-0.2023521066 58973837.4901237488 181.1230010986
-0.2020349503 58973837.5211219788 181.0910034180
-0.2017894089 58973837.5451202393 180.9960021973
-0.2014722526 58973837.5761184692 180.9600067139
-0.2011550963 58973837.6071166992 180.9140014648
-0.2007560879 58973837.6461181641 180.8670043945
-0.2005105466 58973837.6701164246 180.8110046387
-0.2001934052 58973837.7011146545 180.7510070801
-0.1414322555 58973837.2864913940 178.3350067139
-0.1997943968 58973837.7401123047 180.7070007324
-0.1411150992 58973837.3174896240 178.2810058594
-0.1133087501 58973837.0051879883 176.4620056152
-0.1129097492 58973837.0441856384 176.4490051270
-0.1991600841 58973837.8021087646 180.6170043945
-0.1124289036 58973837.0911827087 176.4510040283
-0.1987508535 58973837.8421058655 180.6210021973
-0.1404705644 58973837.3804855347 177.9270019531
-0.1985155344 58973837.8651046753 180.4980010986
-0.1398362517 58973837.4424819946 178.0110015869
-0.1981165409 58973837.9041023254 180.4920043945
-0.1384755522 58973837.5754737854 177.5800018311
-0.1380765438 58973837.6144752502 177.5760040283
-0.1373603940 58973837.6844711304 176.9790039063
-0.1369613856 58973837.7234687805 176.9700012207
-0.1365623772 58973837.7624664307 176.9490051270
-0.1058811620 58973837.7311515808 176.4570007324
-0.1926839650 58973838.4350738525 179.5240020752
-0.1345571429 58973837.9584541321 176.5720062256
-0.1922849566 58973838.4740715027 179.5350036621
-0.1336772889 58973838.0444526672 176.8300018311
-0.1335238367 58973838.0594482422 176.6880035400
-0.1331964433 58973838.0914497375 176.5980072021
-0.1914051026 58973838.5600700378 179.3300018311
-0.1326439679 58973838.1454467773 176.6990051270
-0.1909242570 58973838.6070671082 179.3240051270
-0.1321631223 58973838.1924438477 176.6950073242
-0.1310479641 58973838.3014373779 177.1340026855
-0.1304034144 58973838.3644332886 177.2760009766
-0.1309661269 58973838.3094367981 176.6300048828
-0.1305671036 58973838.3484344482 176.6190032959
-0.1604067236 58973838.5597496033 177.7480010986
-0.1599258780 58973838.6067504883 177.7380065918
-0.1293598861 58973838.4664306641 176.5670013428
-0.1289608628 58973838.5054283142 176.5420074463
-0.1285618693 58973838.5444259644 176.5390014648
-0.1281628758 58973838.5834236145 176.5220031738
-0.1880494058 58973838.8880500793 178.2500000000
-0.1876503974 58973838.9270477295 178.2480010986
-0.1868421584 58973839.0060462952 178.4600067139
-0.1864431649 58973839.0450439453 178.4620056152
-0.1860441566 58973839.0840415955 178.4550018311
-0.1258507073 58973838.8094100952 176.5820007324
-0.1256051660 58973838.8334083557 176.4900054932
-0.0970826373 58973838.5911064148 174.8670043945
-0.0966120288 58973838.6371040344 174.8950042725
-0.1843663007 58973839.2480316162 178.4720001221
-0.1838854551 58973839.2950286865 178.4530029297
-0.1834864467 58973839.3340263367 178.4470062256
-0.0955684781 58973838.7390975952 174.3990020752
-0.0951694772 58973838.7780952454 174.3860015869
-0.0946886316 58973838.8250923157 174.3750000000
-0.1528870761 58973839.2947120667 176.4680023193
-0.1524880677 58973839.3337097168 176.4600067139
-0.1520072222 58973839.3807067871 176.4570007324
-0.2091341019 58973839.8573188782 178.3930053711
-0.2087350935 58973839.8963165283 178.3860015869
-0.0906883702 58973839.2160720825 173.4640045166
-0.2082542330 58973839.9433135986 178.3820037842
-0.0898187533 58973839.3010673523 173.1230010986
-0.1477000415 58973839.8016853333 176.4900054932
-0.0893379003 58973839.3480644226 173.1170043945
-0.2066582292 58973840.0993041992 178.3710021973
-0.1472191960 58973839.8486824036 176.5010070801
-0.2062592357 58973840.1383018494 178.3580017090
-0.1752608567 58973840.1379852295 176.4940032959
-0.2032206655 58973840.4352874756 178.3800048828
-0.1746981591 58973840.1929817200 176.5540008545
-0.2028932869 58973840.4672851563 178.3670043945
-0.2024226636 58973840.5132827759 178.3630065918
-0.1739001572 58973840.2709770203 176.1690063477
-0.1432189345 58973840.2396621704 175.6540069580
-0.0537049584 58973839.8007240295 172.2500000000
-0.1427380741 58973840.2866592407 175.6390075684
-0.0532957204 58973839.8407211304 171.8630065918
-0.1718232930 58973840.4739685059 176.4770050049
-0.0527432598 58973839.8947181702 171.9340057373
-0.1713424474 58973840.5209655762 176.4770050049
-0.0523442589 58973839.9337158203 171.8430023193
-0.1709434390 58973840.5599632263 176.4750061035
-0.1419400871 58973840.3646583557 174.9290008545
-0.1415410638 58973840.4036560059 174.9250030518
-0.1097064391 58973840.3873291016 174.4140014648
-0.1413057745 58973840.4266548157 174.3930053711
-0.1085810512 58973840.4973220825 173.5870056152
-0.1084991992 58973840.5053215027 173.2510070801
-0.2266993970 58973841.1705665588 178.3650054932
-0.1081820503 58973840.5363197327 173.1390075684
-0.2263003886 58973841.2095642090 178.3600006104
-0.2259013802 58973841.2485618591 178.3560028076
-0.0481086895 58973840.3476943970 170.8520050049
-0.0477096885 58973840.3866920471 170.8520050049
-0.0474641509 58973840.4106941223 170.6360015869
-0.1958647072 58973841.1542510986 176.4900054932
-0.0759866610 58973840.6529960632 172.3190002441
-0.1954656988 58973841.1932487488 176.4880065918
-0.0760685131 58973840.6449966431 171.9080047607
-0.1950667053 58973841.2322463989 176.4900054932
-0.0748715028 58973840.7619895935 170.9620056152
-0.0437094308 58973840.7776718140 170.6950073242
-0.2212668061 58973841.7015380859 178.3670043945
-0.0440265909 58973840.7466735840 170.0110015869
-0.2208678126 58973841.7405357361 178.3670043945
-0.2204688042 58973841.7795333862 178.3670043945
-0.0423487313 58973840.9106674194 169.4960021973
-0.1899512857 58973841.7322196960 176.4790039063
-0.0418678783 58973840.9576644897 169.4940032959
-0.1894704252 58973841.7792167664 176.4790039063
-0.1890714318 58973841.8182144165 176.4720001221
-0.0412335694 58973841.0196609497 169.2400054932
-0.0407527201 58973841.0666580200 169.2160034180
-0.0389111713 58973841.2466506958 169.5930023193
-0.0381950103 58973841.3166465759 169.4340057373
-0.0377141610 58973841.3636436462 169.4230041504
-0.2453566939 58973842.4748268127 178.3580017090
-0.2449577004 58973842.5138244629 178.3540039063
-0.2445587069 58973842.5528221130 178.3480072021
-0.0052732402 58973841.5043182373 168.1920013428
