1.3710008860 123640182.2692871094 76.8580017090
1.3713810444 123640182.3472824097 76.8610000610
1.3407615423 123640182.4254302979 76.8560028076
1.2806680202 123640182.8167343140 80.1640014648
1.2810091972 123640182.8867263794 80.1679992676
1.3120088577 123640182.8865814209 78.1279983521
1.2813942432 123640182.9657287598 80.2470016479
1.3127740622 123640183.0435791016 77.9240036011
1.2852008343 123640183.7467193604 77.1790008545
1.2224647999 123640183.8010253906 81.2850036621
1.2228108644 123640183.8720245361 81.2949981689
1.2859612703 123640183.9027175903 76.8570022583
1.2231910229 123640183.9500274658 81.3010025024
1.2867215872 123640184.0587158203 77.0449981689
1.2871017456 123640184.1367187500 77.0520019531
1.2259302139 123640184.5120162964 78.2080001831
1.2266954184 123640184.6690139771 78.4580001831
1.2270365953 123640184.7390136719 78.4550018311
1.1651884317 123640184.7703170776 82.3410034180
1.1655344963 123640184.8413162231 82.4059982300
1.1658756733 123640184.9113159180 82.4160003662
1.1978257895 123640185.1061630249 79.6559982300
1.1349775791 123640185.1374664307 82.6679992676
1.1982059479 123640185.1841583252 79.6760025024
1.1353236437 123640185.2084655762 82.8190002441
1.1675864458 123640185.2623138428 79.8990020752
1.1357038021 123640185.2864685059 82.9039993286
1.1679325104 123640185.3333129883 79.8960037231
1.1360449791 123640185.3564682007 82.9899978638
1.1363861561 123640185.4264678955 83.0640029907
1.1057715416 123640185.5056152344 83.1549987793
1.1061127186 123640185.5756149292 83.2399978638
1.1064538956 123640185.6456146240 83.3270034790
1.1068341732 123640185.7236099243 83.4479980469
1.1380628347 123640185.7704620361 81.1320037842
1.1071801186 123640185.7946090698 83.4720001221
1.1075212955 123640185.8646087646 83.5690002441
1.1387500763 123640185.9114608765 81.3450012207
1.0769019127 123640185.9427642822 83.6620025635
1.0772430897 123640186.0127639771 83.7480010986
1.0775891542 123640186.0837631226 83.8320007324
1.0779303312 123640186.1537551880 83.9049987793
1.0783104897 123640186.2317581177 83.9869995117
1.0786516666 123640186.3017578125 84.0690002441
1.0789977312 123640186.3727569580 84.1500015259
1.0791877508 123640186.4117584229 82.5810012817
1.0483392477 123640186.4429092407 84.2399978638
1.0487194061 123640186.5209045410 84.3190002441
1.0799090862 123640186.5597534180 82.7500000000
1.0490264893 123640186.5839080811 84.4110031128
1.0494066477 123640186.6619033813 84.5410003662
1.0497478247 123640186.7319030762 84.5690002441
1.0500890017 123640186.8019027710 84.6529998779
1.0184354782 123640186.8730545044 84.7389984131
1.0188156366 123640186.9510574341 84.8290023804
1.0191568136 123640187.0210571289 84.9020004272
1.0194638968 123640187.0840530396 84.9970016479
1.0198440552 123640187.1620559692 85.0690002441
1.0201852322 123640187.2320556641 85.2030029297
0.9895267487 123640187.3022003174 85.2300033569
0.9898728132 123640187.3731994629 85.3190002441
0.9902139902 123640187.4431991577 85.3880004883
0.9905551672 123640187.5131988525 85.4850006104
0.9909012318 123640187.5841979980 85.5550003052
0.9912034273 123640187.6462020874 85.8590011597
0.9605108500 123640187.7093505859 86.3410034180
0.9607740641 123640187.7633514404 86.7340011597
0.9610810876 123640187.8263473511 87.0920028687
0.9614222646 123640187.8963470459 87.1080017090
0.9306517243 123640187.9434967041 87.6480026245
0.9310318828 123640188.0214996338 87.6419982910
0.9313779473 123640188.0924987793 87.6669998169
0.9317191243 123640188.1624984741 87.6800003052
0.9319872260 123640188.2174911499 88.2350006104
0.9003287554 123640188.2876510620 88.2470016479
0.9006699324 123640188.3576507568 88.2529983521
0.9010111094 123640188.4276504517 88.2720031738
0.9013571739 123640188.4986495972 88.2750015259
0.9016983509 123640188.5686492920 88.3050003052
0.9020395279 123640188.6386489868 88.3190002441
0.9024245739 123640188.7176437378 88.3229980469
0.9027657509 123640188.7876434326 88.3320007324
0.8721073270 123640188.8577957153 88.3330001831
0.8724143505 123640188.9207916260 88.4720001221
0.8730577230 123640189.0527954102 88.8470001221
0.8430134058 123640189.2489395142 89.2630004883
0.8439638019 123640189.4439392090 89.6910018921
0.8445730805 123640189.5689392090 90.0299987793
0.8144507408 123640189.7490844727 90.4739990234
0.7834015489 123640189.9442367554 90.9120025635
0.7843178511 123640190.1322402954 91.3430023193
0.7542296648 123640190.3193893433 91.7389984131
0.7551801205 123640190.5143814087 92.1470031738
0.6955837011 123640191.0076828003 94.2760009766
0.6959249377 123640191.0776824951 94.2630004883
0.6962270737 123640191.1396789551 94.2630004883
0.6966121197 123640191.2186737061 94.2590026855
0.6969532967 123640191.2886734009 94.2610015869
0.6656360626 123640191.4288330078 94.1620025635
0.6659821272 123640191.4998321533 94.1520004272
0.6663233042 123640191.5698318481 94.1520004272
0.6666644812 123640191.6398315430 94.0530014038
0.6670105457 123640191.7108306885 94.0550003052
0.6673517227 123640191.7808303833 94.0630035400
0.6676928997 123640191.8508224487 94.0360031128
0.6679999232 123640191.9138259888 94.1050033569
0.6683801413 123640191.9918212891 93.9840011597
0.6687213182 123640192.0618209839 93.9599990845
0.6380677223 123640192.1329727173 93.9380035400
0.6384478807 123640192.2109756470 93.9049987793
0.6387500763 123640192.2729721069 93.8980026245
0.6390961409 123640192.3439712524 93.8369979858
0.6394762993 123640192.4219665527 93.8190002441
0.6398174763 123640192.4919662476 93.8199996948
0.4995476902 123640195.7196884155 92.7500000000
0.4998888671 123640195.7896881104 92.7620010376
0.5002300739 123640195.8596878052 92.7610015869
0.4697665572 123640195.9698410034 93.0130004883
1.3173859119 123640177.6294937134 82.4720001221
1.3176881075 123640177.6914901733 82.3330001831
1.3180292845 123640177.7614898682 82.2060012817
1.3183753490 123640177.8324890137 81.9860000610
1.3187165260 123640177.9024887085 81.9860000610
1.3190966845 123640177.9804840088 81.9850006104
1.2884773016 123640178.0586395264 81.9860000610
1.2888574600 123640178.1366348267 81.9869995117
1.2892035246 123640178.2076339722 81.9820022583
1.2895836830 123640178.2856369019 81.9739990234
1.2899638414 123640178.3636322021 81.9599990845
1.2903829813 123640178.4496307373 82.5830001831
1.2598024607 123640178.5357818604 82.7910003662
1.2601827383 123640178.6137771606 82.8750000000
1.2605239153 123640178.6837768555 82.8509979248
1.2609040737 123640178.7617797852 82.8330001831
1.2612501383 123640178.8327789307 82.7360000610
1.2615913153 123640178.9027786255 82.6549987793
1.2619714737 123640178.9807739258 82.5650024414
1.2623126507 123640179.0507736206 82.4550018311
1.2306979895 123640179.1299285889 82.4300003052
1.2310001850 123640179.1919326782 82.3280029297
1.2313803434 123640179.2699279785 82.2379989624
1.2317606211 123640179.3479309082 82.1549987793
1.2321066856 123640179.4189300537 82.0709991455
1.2324478626 123640179.4889297485 81.9860000610
1.2328280210 123640179.5669250488 81.9020004272
1.2331691980 123640179.6369247437 81.8040008545
1.2335152626 123640179.7079238892 81.7239990234
1.2338954210 123640179.7859191895 81.6470031738
1.2342365980 123640179.8559188843 81.5690002441
1.2345777750 123640179.9259185791 81.4860000610
1.2039631605 123640180.0050735474 81.3899993896
1.2043433189 123640180.0830688477 81.3199996948
1.2978841066 123640179.9886169434 76.8580017090
1.2046844959 123640180.1530685425 81.2320022583
1.2672646046 123640180.0667648315 76.8450012207
1.2050646544 123640180.2310714722 81.1330032349
1.2680639029 123640180.2307586670 77.1259994507
1.2684440613 123640180.3087615967 77.0550003052
1.2391495705 123640180.8639068604 77.9400024414
1.1776815653 123640180.9732131958 80.2910003662
1.2085300684 123640180.9420623779 77.9680023193
1.1780617237 123640181.0512084961 80.2249984741
1.1784077883 123640181.1222076416 80.1250000000
1.2092903852 123640181.0980606079 78.0839996338
1.2111182213 123640181.4730529785 76.8460006714
1.2114983797 123640181.5510559082 76.8489990234
1.2118834257 123640181.6300506592 76.8430023193
1.1813369989 123640181.7232055664 78.9240036011
1.1817171574 123640181.8012008667 78.9670028687
1.1511026621 123640181.8803482056 79.1949996948
1.1514828205 123640181.9583511353 79.1910018921
1.1824043989 123640181.9421997070 76.8470001221
1.1518629789 123640182.0363464355 79.2030029297
1.1827845573 123640182.0201950073 76.8470001221
1.1522431374 123640182.1143493652 79.1940002441
1.1526232958 123640182.1923446655 79.3130035400
1.1846903563 123640182.4111938477 76.8639984131
1.1540708542 123640182.4893417358 76.8649978638
1.1544510126 123640182.5673446655 76.8629989624
1.0925923586 123640182.8016510010 80.1480026245
1.1239769459 123640182.8804931641 78.1539993286
1.0933575630 123640182.9586486816 80.2770004272
1.0936987400 123640183.0286483765 80.2809982300
1.1247373819 123640183.0364913940 77.8970031738
1.1251175404 123640183.1144943237 77.8759994507
1.0971251726 123640183.7316360474 77.2220001221
1.0353939533 123640183.7869415283 81.2119979858
1.0979244709 123640183.8956375122 76.8479995728
1.0361152887 123640183.9349365234 81.3619995117
1.0982705355 123640183.9666366577 76.8229980469
1.0986506939 123640184.0446319580 77.0579986572
1.0990308523 123640184.1226348877 77.0800018311
1.0388983488 123640184.5059280396 78.1370010376
1.0396196842 123640184.6539306641 78.5000000000
0.9767325521 123640184.6772308350 82.2910003662
1.0399608612 123640184.7239303589 78.5370025635
0.9771175981 123640184.7562332153 82.2770004272
0.9774977565 123640184.8342361450 82.4400024414
0.9778389335 123640184.9042282104 82.4440002441
1.0097889900 123640185.0990753174 79.6129989624
0.9798957705 123640185.3262252808 79.9680023193
0.9194172025 123640185.6385269165 83.3980026245
0.9510260820 123640185.7633743286 81.0650024414
0.9201434255 123640185.7875213623 83.5070037842
0.9204846025 123640185.8575210571 83.5169982910
0.9517132640 123640185.9043731689 81.3759994507
0.9520934820 123640185.9823684692 81.3880004883
0.8911510110 123640186.4046707153 82.5490036011
0.8918382525 123640186.5456695557 82.8059997559
0.8609897494 123640186.5768203735 84.4609985352
0.8922184110 123640186.6236724854 82.8310012817
0.8613699079 123640186.6548233032 84.4570007324
0.8617110848 123640186.7248229980 84.5650024414
0.8620571494 123640186.7958221436 84.5670013428
0.8632366657 123640187.0378189087 84.0250015259
0.8329193592 123640187.1779632568 84.2399978638
0.8331484199 123640187.2249679565 85.1940002441
0.8042446375 123640187.6551132202 85.5270004272
0.8045858145 123640187.7251129150 85.6110000610
0.7727762461 123640187.7642669678 86.4570007324
0.7730053663 123640187.8112640381 87.1660003662
0.7732734084 123640187.8662643433 87.6949996948
0.7425418496 123640187.9214172363 88.0210037231
0.7428440452 123640187.9834136963 88.4820022583
0.7431120872 123640188.0384140015 88.9029998779
0.7123805285 123640188.0935668945 89.2750015259
0.7126827240 123640188.1555633545 89.5589981079
0.7129898071 123640188.2185592651 89.6809997559
0.7133699656 123640188.2965621948 89.6669998169
0.7137111425 123640188.3665618896 89.5970001221
0.7140523195 123640188.4365615845 89.5970001221
0.7143983841 123640188.5075607300 89.6689987183
0.7148175240 123640188.5935592651 87.5979995728
0.6837399006 123640188.5777053833 89.6669998169
0.7151197195 123640188.6555557251 87.7399978638
0.6840811372 123640188.6477050781 89.6679992676
0.7154608965 123640188.7255554199 87.9300003052
0.6844271421 123640188.7187042236 89.6699981689
0.7157679796 123640188.7885589600 88.0729980469
0.6521594524 123640188.6638641357 92.6520004272
0.6848073006 123640188.7967071533 89.6790008545
0.7161091566 123640188.8585510254 88.2360000610
0.6524616480 123640188.7258605957 92.7330017090
0.6851485372 123640188.8667068481 89.6660003662
0.6854165792 123640188.9217071533 88.3740005493
0.6527687311 123640188.7888641357 92.8410034180
0.6854897141 123640188.9367065430 89.6350021362
0.6531099081 123640188.8588638306 92.9300003052
0.6860599518 123640189.0537033081 88.7220001221
0.6224173307 123640188.9220123291 93.0250015259
0.6863670349 123640189.1166992188 88.8470001221
0.6227585077 123640188.9920120239 93.1090011597
0.6866691709 123640189.1787033081 89.0090026855
0.6230607033 123640189.0540084839 93.2109985352
0.6869372725 123640189.2337036133 89.3190002441
0.6233677864 123640189.1170120239 93.3089981079
0.6551667452 123640189.2808532715 89.7789993286
0.6237089634 123640189.1870117188 93.4010009766
0.6555469036 123640189.3588562012 89.7500000000
0.6240159869 123640189.2500076294 93.5120010376
0.6558880806 123640189.4288558960 89.7180023193
0.5933185816 123640189.3121566772 93.5839996338
0.6561951637 123640189.4918518066 89.9550018311
0.5936256051 123640189.3751602173 93.6819992065
0.5939278007 123640189.4371566772 93.7910003662
0.5942738652 123640189.5081558228 93.8649978638
0.5945760608 123640189.5701522827 93.9570007324
0.5948830843 123640189.6331558228 94.0579986572
0.5951852798 123640189.6951522827 94.1470031738
0.5644927025 123640189.7583007813 94.2500000000
0.5648338795 123640189.8283004761 94.3330001831
0.5651360750 123640189.8903045654 94.4309997559
0.5654431581 123640189.9533004761 94.4530029297
0.5972810984 123640190.1251449585 91.3290023804
0.5660914183 123640190.0863037109 94.6190032959
0.5664325953 123640190.1562957764 94.6129989624
0.5667396188 123640190.2192993164 94.5920028687
0.5351201892 123640190.2974548340 94.5559997559
0.5354613662 123640190.3674545288 94.5569992065
0.5357635617 123640190.4294509888 94.5370025635
0.5361486077 123640190.5084533691 94.4879989624
0.5364897847 123640190.5784530640 94.4599990845
0.5367919803 123640190.6404495239 94.4580001831
0.5371770263 123640190.7194519043 94.4339981079
0.5375182033 123640190.7894439697 94.3899993896
0.5378593802 123640190.8594436646 94.3629989624
0.5071668029 123640190.9225997925 94.3619995117
0.5075469613 123640191.0005950928 94.3339996338
0.5078881383 123640191.0705947876 94.2850036621
0.5082293153 123640191.1405944824 94.2509994507
0.5085753798 123640191.2115936279 94.2399978638
0.5089165568 123640191.2815933228 94.2320022583
0.5092577338 123640191.3515930176 94.2080001831
0.5096037984 123640191.4225921631 94.1660003662
0.5099449754 123640191.4925918579 94.1380004883
0.4792865217 123640191.5627441406 94.1110000610
0.4796325564 123640191.6337432861 94.1250000000
0.4799737632 123640191.7037353516 94.0930023193
0.4803149402 123640191.7737350464 94.0910034180
0.4806610048 123640191.8447341919 94.0790023804
0.4810021818 123640191.9147338867 94.0830001831
0.4815334380 123640192.0237350464 92.5279998779
0.4813823402 123640191.9927368164 93.9580001831
0.4816845059 123640192.0547332764 93.9420013428
0.4820695817 123640192.1337356567 93.9300003052
0.4824107587 123640192.2037353516 93.9240036011
0.4517523050 123640192.2738800049 93.9020004272
0.4520983398 123640192.3448791504 93.8610000610
0.4524395168 123640192.4148788452 93.8330001831
0.4524005353 123640192.4068832397 94.9309997559
0.4531219006 123640192.5548782349 93.8020019531
0.4534679353 123640192.6258773804 93.7720031738
0.4538481236 123640192.7038803101 93.7340011597
0.4541502893 123640192.7658767700 93.7080001831
0.4544963539 123640192.8368759155 93.7080001831
0.4228768945 123640192.9150314331 93.6740036011
0.4232180715 123640192.9850311279 93.6370010376
0.4235592484 123640193.0550308228 93.6250000000
0.4239053130 123640193.1260299683 93.6110000610
0.4242464900 123640193.1960296631 93.5830001831
0.4245876670 123640193.2660293579 93.5449981689
0.4249337316 123640193.3370285034 93.5490036011
0.4253138900 123640193.4150238037 93.5210037231
0.4256550670 123640193.4850234985 93.4840011597
0.3949966431 123640193.5551757813 93.4540023804
0.3953426778 123640193.6261749268 93.4150009155
0.3957228363 123640193.7041702271 93.4020004272
0.3960640430 123640193.7741699219 93.3820037842
0.3964100778 123640193.8451690674 93.3730010986
0.3967512548 123640193.9151687622 93.3479995728
0.3970924318 123640193.9851684570 93.3130035400
0.3974726200 123640194.0631713867 93.2720031738
0.3978186846 123640194.1341705322 93.2389984131
0.3671212196 123640194.1963195801 93.2389984131
0.3675013781 123640194.2743148804 93.2119979858
0.3678474426 123640194.3453140259 93.1640014648
0.3682276309 123640194.4233169556 93.1520004272
0.3685688078 123640194.4933166504 93.1250000000
0.3689099848 123640194.5633163452 93.0869979858
0.3692560196 123640194.6343154907 93.0910034180
0.3695971966 123640194.7043151855 93.0550003052
0.3699773848 123640194.7823104858 93.0370025635
0.3703185618 123640194.8523101807 93.0370025635
0.3396649659 123640194.9234619141 92.9980010986
0.3400061727 123640194.9934616089 92.9449996948
0.3403863311 123640195.0714569092 92.9260025024
0.3407275081 123640195.1414566040 92.8880004883
0.3410735726 123640195.2124557495 92.8610000610
0.3414147496 123640195.2824554443 92.8610000610
0.3417949080 123640195.3604583740 92.8420028687
0.3421361148 123640195.4304580688 92.7890014648
0.3424821496 123640195.5014572144 92.7750015259
0.3108626902 123640195.5796127319 92.7500000000
0.3112038672 123640195.6496047974 92.7160034180
0.3115499318 123640195.7206039429 92.7089996338
0.3118911088 123640195.7906036377 92.7030029297
0.3122322857 123640195.8606033325 92.7089996338
0.3125393391 123640195.9236068726 92.8170013428
0.3128415346 123640195.9856033325 92.8990020752
0.3132996857 123640196.0796051025 92.6009979248
0.3136798739 123640196.1576004028 92.5279998779
0.2830214202 123640196.2277526855 92.5130004883
0.2834015787 123640196.3057556152 92.4990005493
0.2837476432 123640196.3767547607 92.4729995728
1.2165683508 123640176.2309646606 85.5800018311
1.2169485092 123640176.3089675903 85.6110000610
1.2172945738 123640176.3799667358 85.6129989624
1.1866750717 123640176.4581146240 85.6250000000
1.1869382858 123640176.5121154785 85.3219985962
1.1873233318 123640176.5911102295 85.2919998169
1.1876645088 123640176.6611099243 85.2109985352
1.1879667044 123640176.7231140137 85.1380004883
1.1883468628 123640176.8011093140 85.0559997559
1.1886539459 123640176.8641052246 84.9860000610
1.1890341043 123640176.9421081543 84.8970031738
1.1893752813 123640177.0121078491 84.8330001831
1.1896823645 123640177.0751037598 84.7480010986
1.1900625229 123640177.1531066895 84.6679992676
1.1903696060 123640177.2161026001 84.5690002441
1.1597501040 123640177.2942581177 84.5449981689
1.1600912809 123640177.3642501831 84.4100036621
1.1604324579 123640177.4342498779 84.3349990845
1.1607785225 123640177.5052490234 84.2440032959
1.1611196995 123640177.5752487183 84.1640014648
1.1614608765 123640177.6452484131 84.0830001831
1.1618069410 123640177.7162475586 83.9990005493
1.1621481180 123640177.7862472534 83.9260025024
1.1625282764 123640177.8642501831 83.8580017090
1.1628304720 123640177.9262466431 83.7630004883
1.1632155180 123640178.0052490234 83.6920013428
1.1635566950 123640178.0752487183 83.6050033569
1.1638978720 123640178.1452484131 83.5299987793
1.1945563555 123640178.0750961304 81.3479995728
1.1332784891 123640178.2233963013 83.4039993286
1.1948975325 123640178.1450958252 81.0690002441
1.1335854530 123640178.2863922119 83.3880004883
1.1666809320 123640178.7162399292 79.9440002441
1.1669831276 123640178.7782363892 79.5920028687
1.1673632860 123640178.8562393188 79.5810012817
1.1054704189 123640179.0835418701 82.4749984741
1.1061917543 123640179.2315368652 82.2770004272
1.1694591045 123640179.2862319946 78.5410003662
1.1698392630 123640179.3642272949 78.5410003662
1.1701804399 123640179.4342269897 78.1110000610
1.1723152399 123640179.8722229004 77.1380004883
1.0791547298 123640180.0446777344 81.4250030518
1.1420760155 123640180.0283737183 76.8550033569
1.0798370838 123640180.1846771240 81.1520004272
1.1424561739 123640180.1063690186 76.8610000610
1.0802172422 123640180.2626800537 81.0800018311
1.1432164907 123640180.2623672485 77.1800003052
1.1436356306 123640180.3483657837 77.1800003052
1.1139609814 123640180.8255233765 77.9000015259
1.0524929762 123640180.9348220825 80.3690032959
1.1143021584 123640180.8955154419 77.8690032959
0.8354402781 123640181.3348846436 94.6360015869
1.0535993576 123640181.1618194580 80.0690002441
1.0851302147 123640181.2706680298 76.8629989624
1.0255290270 123640181.7629623413 79.4479980469
1.0262942314 123640181.9199600220 79.2180023193
1.0266354084 123640181.9899597168 79.2040023804
1.0575569868 123640181.9738082886 76.8750000000
1.0270155668 123640182.0679550171 79.2119979858
1.0277417898 123640182.2169570923 79.4100036621
1.0281219482 123640182.2949523926 78.8420028687
0.7797625661 123640182.6321716309 94.4810028076
1.0299837589 123640182.6769485474 76.8550033569
0.9674037099 123640182.7632598877 80.0630035400
1.0303688049 123640182.7559509277 76.8690032959
0.9987493753 123640182.8341064453 78.2220001221
0.9688512683 123640183.0602569580 80.3590011597
1.0002701283 123640183.1461029053 77.8330001831
0.9098251462 123640183.6705474854 81.1250000000
0.9719365239 123640183.6932449341 77.2770004272
0.9730770588 123640183.9272460938 76.8610000610
0.9112727642 123640183.9675445557 81.4440002441
0.9116529226 123640184.0455474854 81.4329986572
0.9431837797 123640184.1543884277 77.1910018921
0.9446703792 123640184.4593887329 78.0550003052
0.6944832802 123640184.4216079712 93.9440002441
0.6948244572 123640184.4916076660 94.0410003662
0.8515439034 123640184.6388473511 82.2229995728
0.6951656342 123640184.5616073608 94.1139984131
0.9151183367 123640184.7565383911 78.6250000000
0.6955116987 123640184.6326065063 94.2089996338
0.7269645929 123640184.7254486084 92.5410003662
0.6962720156 123640184.7886047363 92.6250000000
0.8529915214 123640184.9358367920 82.5270004272
0.6966131926 123640184.8586044312 92.7350006104
0.8533716798 123640185.0138397217 82.5380020142
0.8845614195 123640185.0526885986 79.5400009155
0.6969202757 123640184.9216003418 92.8180007935
0.6972614527 123640184.9916000366 92.9250030518
0.6976026297 123640185.0615997314 93.0139999390
0.6979096532 123640185.1245956421 93.0970001221
0.8550093174 123640185.3498382568 80.0550003052
0.6672512293 123640185.1947479248 93.1910018921
0.6675924063 123640185.2647476196 93.2809982300
0.6679384708 123640185.3357467651 93.3899993896
0.6682406664 123640185.3977432251 93.4820022583
0.7941944599 123640185.5931320190 83.3300018311
0.6685866714 123640185.4687423706 93.5670013428
0.8258033395 123640185.7179794312 80.9280014038
0.6688888669 123640185.5307464600 93.6660003662
0.6692300439 123640185.6007461548 93.7580032349
0.6375764608 123640185.6718978882 93.8450012207
0.6378786564 123640185.7339019775 93.9469985962
0.6381857395 123640185.7968978882 94.0810012817
0.6385269165 123640185.8668975830 94.1149978638
0.6388291121 123640185.9288940430 94.2220001221
0.6390581727 123640185.9758987427 92.4810028076
0.6392141581 123640186.0078964233 94.1380004883
0.6394042373 123640186.0468978882 92.5559997559
0.6395553350 123640186.0778961182 94.1340026855
0.6397064328 123640186.1088943481 92.6559982300
0.6088578701 123640186.1400451660 94.2080001831
0.6400135159 123640186.1718902588 92.7760009766
0.6092039347 123640186.2110443115 94.2030029297
0.6095451117 123640186.2810440063 94.2080001831
0.6098862886 123640186.3510437012 94.2080001831
0.6101933718 123640186.4140396118 94.2109985352
0.6105345488 123640186.4840393066 94.2200012207
0.6108757257 123640186.5540390015 94.2220001221
0.6112217903 123640186.6250381470 94.1409988403
0.6115629673 123640186.6950378418 94.1660003662
0.5809044838 123640186.7651901245 94.1669998169
0.5812115669 123640186.8281860352 94.2030029297
0.5815527439 123640186.8981857300 94.2160034180
0.5818598270 123640186.9611892700 94.2220001221
0.5822010040 123640187.0311889648 94.2330017090
0.5825421810 123640187.1011810303 94.2340011597
0.5828882456 123640187.1721801758 94.2340011597
0.5832293630 123640187.2421798706 94.2360000610
0.5525319576 123640187.3043365479 94.2360000610
0.5528780222 123640187.3753356934 94.2379989624
0.5532191992 123640187.4453277588 94.2389984131
0.5535603762 123640187.5153274536 94.2399978638
0.5539064407 123640187.5863265991 94.2440032959
0.5542085767 123640187.6483306885 94.2369995117
0.5545546412 123640187.7193298340 94.2399978638
0.5548958182 123640187.7893295288 94.2389984131
0.5552369952 123640187.8593292236 94.2389984131
0.5235785842 123640187.9294815063 94.2440032959
0.5238856673 123640187.9924774170 94.2399978638
0.5242268443 123640188.0624771118 94.2379989624
0.5245728493 123640188.1334762573 94.2379989624
0.5249140263 123640188.2034759521 94.2389984131
0.5252552032 123640188.2734756470 94.2360000610
0.5256012678 123640188.3444747925 94.2389984131
0.5259034634 123640188.4064788818 94.2379989624
0.5262446404 123640188.4764785767 94.2500000000
0.4955910742 123640188.5476226807 94.2610015869
0.5270098448 123640188.6334762573 92.3170013428
0.4959322512 123640188.6176223755 94.2730026245
0.5273510218 123640188.7034759521 92.3190002441
0.4962344468 123640188.6796264648 94.2850036621
0.4965804815 123640188.7506256104 94.2900009155
0.4969216585 123640188.8206253052 94.2910003662
0.4972628355 123640188.8906250000 94.2770004272
0.4976089001 123640188.9616241455 94.2770004272
0.4979500771 123640189.0316162109 94.2710037231
0.5621288419 123640189.2733078003 89.1259994507
0.4983692467 123640189.1176223755 93.8479995728
0.4987494051 123640189.1956176758 93.7080001831
0.4680909514 123640189.2657699585 93.6350021362
0.4684370160 123640189.3367691040 93.5690002441
0.4688172042 123640189.4147644043 93.4950027466
0.4691583812 123640189.4847640991 93.4250030518
0.4695385396 123640189.5627670288 93.3410034180
0.4698455930 123640189.6257629395 93.3190002441
0.4702257812 123640189.7037658691 93.2340011597
0.5019126534 123640189.8446121216 90.4980010986
0.4705669582 123640189.7737655640 93.1520004272
0.5022538304 123640189.9146118164 90.5130004883
0.4709129930 123640189.8447647095 93.1320037842
0.4712931812 123640189.9227600098 93.0410003662
0.4401765764 123640189.8989105225 94.6200027466
0.4716343582 123640189.9927597046 93.0000000000
0.4405567348 123640189.9769134521 94.6279983521
0.4408637881 123640190.0399093628 94.6380004883
0.4412049651 123640190.1099090576 94.6480026245
0.4415851533 123640190.1879119873 94.5520019531
0.4733499885 123640190.3447570801 91.6959991455
0.4421554208 123640190.3049087524 93.5970001221
0.4426135719 123640190.3989028931 91.8720016479
0.4425014555 123640190.3759078979 93.5810012817
0.4431838095 123640190.5159072876 92.3580017090
0.4434908926 123640190.5789031982 92.4680023193
0.4438710511 123640190.6569061279 92.3580017090
0.4442122281 123640190.7268981934 92.3479995728
0.4124806821 123640190.7820587158 92.5830001831
0.3810618818 123640190.6962127686 95.1149978638
0.3814030588 123640190.7662048340 95.1549987793
0.3817101419 123640190.8292083740 95.1969985962
0.3820123076 123640190.8912048340 95.2320022583
0.3823193908 123640190.9542083740 95.3359985352
0.4142694473 123640191.1490554810 92.3270034790
0.3826605678 123640191.0242080688 95.3690032959
0.3829676211 123640191.0872039795 95.3909988403
0.3833087981 123640191.1572036743 95.4440002441
0.3839570284 123640191.2901992798 93.3339996338
0.3526162207 123640191.2203521729 95.4940032959
0.3846052885 123640191.4232025146 92.3430023193
0.3529184163 123640191.2823562622 95.5439987183
0.3849464655 123640191.4932022095 92.3570022583
0.3532595932 123640191.3523559570 95.5869979858
0.3535666466 123640191.4153518677 95.6110000610
0.3547851443 123640191.6653518677 93.9459991455
0.3551263213 123640191.7353515625 93.9739990234
0.3554334044 123640191.7983474731 94.0780029297
0.3560767472 123640191.9303436279 94.2160034180
0.3563838303 123640191.9933471680 94.2220001221
0.3255742788 123640192.0324935913 95.5910034180
0.3259544373 123640192.1104965210 95.4300003052
0.3263736069 123640192.1964950562 95.2600021362
0.3267927766 123640192.2824935913 94.9960021973
0.3271729350 123640192.3604888916 94.9020004272
0.3274800181 123640192.4234924316 94.9280014038
0.3594300747 123640192.6183395386 92.3470001221
0.3277821839 123640192.4854888916 95.0270004272
0.2960896194 123640192.5486450195 95.1240005493
0.2963918149 123640192.6106414795 95.2220001221
0.2966598868 123640192.6656417847 95.3369979858
0.3298000395 123640192.8994827271 92.3560028076
0.2969279587 123640192.7206420898 95.5839996338
0.3301460743 123640192.9704818726 92.3489990234
0.2971911728 123640192.7746429443 95.7310028076
0.3304872513 123640193.0404815674 92.3349990845
0.2975372076 123640192.8456420898 95.7310028076
0.3308284283 123640193.1104812622 92.3470001221
0.2668787539 123640192.9157943726 95.7310028076
0.3311355114 123640193.1734848022 92.3600006104
0.2671809494 123640192.9777908325 95.7360000610
0.2994770706 123640193.2436370850 92.3740005493
0.2998182476 123640193.3136367798 92.3820037842
0.2677901983 123640193.1027908325 95.9430007935
0.2997061312 123640193.2906341553 93.5149993896
0.3001642823 123640193.3846359253 92.3710021973
0.3000863194 123640193.3686370850 93.5289993286
0.3008466363 123640193.5246353149 92.3750000000
0.3011927009 123640193.5956344604 92.3779983521
0.3015338778 123640193.6656341553 92.3769989014
0.2382771373 123640193.4079360962 96.3450012207
0.3018750548 123640193.7356338501 92.3750000000
0.3022552431 123640193.8136291504 92.3750000000
0.2715626657 123640193.8767776489 92.3769989014
0.2719038427 123640193.9467773438 92.3779983521
0.2722450197 123640194.0167770386 92.3860015869
0.2725910842 123640194.0877761841 92.3860015869
0.2729322612 123640194.1577758789 92.3820037842
0.2732734382 123640194.2277755737 92.3820037842
0.2736195028 123640194.2987747192 92.3830032349
0.2739606798 123640194.3687744141 92.3840026855
0.2433022112 123640194.4389266968 92.3820037842
0.2436482757 123640194.5099258423 92.3759994507
0.2439894527 123640194.5799255371 92.3820037842
0.2443306297 123640194.6499252319 92.3769989014
0.2446766794 123640194.7209243774 92.3840026855
0.2450178564 123640194.7909240723 92.3860015869
0.2453590333 123640194.8609237671 92.3889999390
0.2144373953 123640194.8770675659 92.9879989624
0.2460072786 123640194.9939193726 92.3889999390
0.2153878212 123640195.0720672607 92.3860015869
0.2157289982 123640195.1420669556 92.3909988403
0.2160750479 123640195.2130661011 92.3909988403
0.2164162248 123640195.2830657959 92.3960037231
0.2167574167 123640195.3530654907 92.3990020752
0.2171034664 123640195.4240646362 92.4020004272
0.2174056470 123640195.4860610962 92.4100036621
0.2177468240 123640195.5560607910 92.4120025635
0.1861322671 123640195.6352157593 92.4029998779
0.1864344329 123640195.6972198486 92.4020004272
0.1868146062 123640195.7752151489 92.4020004272
0.1871216744 123640195.8382186890 92.4020004272
0.1874628514 123640195.9082183838 92.3990020752
0.1878430247 123640195.9862136841 92.3970031738
0.1881842166 123640196.0562133789 92.3970031738
0.1885302663 123640196.1272125244 92.4000015259
0.1888324469 123640196.1892089844 92.4020004272
0.1581788659 123640196.2603607178 92.4150009155
0.1585200429 123640196.3303604126 92.4199981689
0.1588612348 123640196.4003601074 92.4250030518
0.1592413932 123640196.4783554077 92.4250030518
0.1597775370 123640196.5883560181 92.6250000000
1.0887526274 123640175.6535797119 86.9899978638
1.0890938044 123640175.7235794067 86.9810028076
1.0894398689 123640175.7945785522 86.9800033569
1.0898200274 123640175.8725814819 86.9800033569
1.0591616631 123640175.9427261353 86.9800033569
1.0595028400 123640176.0127258301 86.9749984741
1.0598489046 123640176.0837249756 86.9720001221
1.0601900816 123640176.1537246704 86.8489990234
1.0604580641 123640176.2087249756 86.5690002441
1.0607602596 123640176.2707214355 86.3000030518
1.0609893799 123640176.3177261353 85.7910003662
1.0612964630 123640176.3807220459 85.5439987183
1.0616376400 123640176.4507217407 85.4670028687
1.0619788170 123640176.5207214355 85.3960037231
1.0623248816 123640176.5917205811 85.3209991455
1.0626660585 123640176.6617202759 85.2200012207
1.0630072355 123640176.7317199707 85.1520004272
1.0633484125 123640176.8017196655 85.0780029297
1.0635043383 123640176.8337173462 84.2200012207
1.0638455153 123640176.9037170410 84.0270004272
1.0643768311 123640177.0127182007 84.7770004272
1.0344055891 123640177.2238616943 84.5729980469
1.0347516537 123640177.2948608398 84.4550018311
1.0350928307 123640177.3648605347 84.4390029907
1.0665116310 123640177.4507141113 82.8190002441
1.0668138266 123640177.5127105713 82.5149993896
1.0671988726 123640177.5917129517 82.5029983521
1.0079387426 123640178.1540069580 83.5510025024
1.0385582447 123640178.0758514404 81.3769989014
1.0388604403 123640178.1378555298 81.0270004272
1.0085870028 123640178.2870025635 83.3330001831
1.0392063856 123640178.2088546753 80.9619979858
1.0412974358 123640178.6378479004 80.0139999390
1.0416824818 123640178.7168502808 80.0120010376
1.0419846773 123640178.7788467407 79.5429992676
1.0423648357 123640178.8568420410 79.5410003662
0.9805109501 123640179.0921478271 82.5159988403
0.9811933041 123640179.2321472168 82.2220001221
0.9815734625 123640179.3101501465 82.2220001221
1.0444996357 123640179.2948379517 78.5970001221
1.0451819897 123640179.4348373413 78.0390014648
1.0455621481 123640179.5128402710 78.0279998779
0.9537760615 123640179.9672927856 81.4570007324
1.0163561106 123640179.8809814453 77.1800003052
1.0170774460 123640180.0289840698 76.8580017090
1.0174576044 123640180.1069793701 76.8460006714
0.9552187324 123640180.2632904053 81.0970001221
1.0186371803 123640180.3489761353 77.2220001221
0.9579628110 123640180.8262786865 77.8619995117
0.9274944067 123640180.9354324341 80.4010009766
0.7104417682 123640181.3354949951 94.7050018311
0.9286008477 123640181.1624298096 80.0220031738
0.9594103694 123640181.1232757568 76.8779983521
0.7107829452 123640181.4054946899 94.4800033569
0.9289810061 123640181.2404251099 80.0380020142
0.9598685503 123640181.2172775269 78.1920013428
0.7111241221 123640181.4754943848 94.4899978638
0.9601706862 123640181.2792739868 76.8330001831
0.7117723227 123640181.6084899902 94.4980010986
0.6811138988 123640181.6786422729 94.4759979248
0.7120404243 123640181.6634902954 92.7649993896
0.7123816013 123640181.7334899902 92.7340011597
0.7126886845 123640181.7964859009 92.6640014648
0.9311499000 123640181.6854248047 78.8570022583
0.9005304575 123640181.7635726929 79.4940032959
0.9012956619 123640181.9205703735 79.2220001221
0.7140582204 123640182.0774841309 92.5869979858
0.9016758204 123640181.9985656738 79.1800003052
0.9325975180 123640181.9824142456 76.8639984131
0.6833997965 123640182.1476364136 92.6900024414
0.9020560384 123640182.0765686035 79.2089996338
0.6837458611 123640182.2186355591 92.7789993286
0.6840870380 123640182.2886352539 92.8860015869
0.8707777262 123640182.2247238159 79.4120025635
0.6844282150 123640182.3586349487 92.9589996338
0.8711579442 123640182.3027191162 78.9440002441
0.6847693920 123640182.4286270142 93.0380020142
0.6851154566 123640182.4996261597 93.1380004883
0.6854566336 123640182.5696258545 93.2369995117
0.6547981501 123640182.6397781372 93.3270034790
0.6551052332 123640182.7027816772 93.4130020142
0.6554464102 123640182.7727813721 93.5130004883
0.6557924747 123640182.8437805176 93.5930023193
0.6561336517 123640182.9137725830 93.6650009155
0.6564748287 123640182.9837722778 93.7509994507
0.6247822642 123640183.0469284058 93.8700027466
0.6251234412 123640183.1169281006 93.9800033569
0.6254646182 123640183.1869277954 94.1250000000
0.6258106828 123640183.2579269409 94.2080001831
0.6261518598 123640183.3279266357 94.2099990845
0.6264930367 123640183.3979263306 94.2080001831
0.6268001199 123640183.4609222412 94.2060012817
0.6268391013 123640183.4689254761 92.5830001831
0.5961416364 123640183.5310745239 94.2050018311
0.6271802783 123640183.5389251709 92.6139984131
0.5964828134 123640183.6010742188 94.2060012817
0.5967898965 123640183.6640777588 94.2210006714
0.5971700549 123640183.7420730591 94.2300033569
0.5974722505 123640183.8040695190 94.2340011597
0.5978183150 123640183.8750686646 94.2360000610
0.5981594920 123640183.9450683594 94.2360000610
0.5985006690 123640184.0150680542 94.2320022583
0.5988076925 123640184.0780715942 94.2330017090
0.5681492686 123640184.1482162476 94.2300033569
0.5684953332 123640184.2192153931 94.2310028076
0.5688365102 123640184.2892150879 94.2360000610
0.5691387057 123640184.3512191772 94.2360000610
0.5694847107 123640184.4222183228 94.2360000610
0.5698259473 123640184.4922180176 94.2379989624
0.5701671243 123640184.5622177124 94.2360000610
0.5705131292 123640184.6332168579 94.2360000610
0.5708543062 123640184.7032165527 94.2330017090
0.5401569009 123640184.7653656006 94.2350006104
0.5405029655 123640184.8363647461 94.2340011597
0.5408441424 123640184.9063644409 94.2330017090
0.5411853194 123640184.9763641357 94.2320022583
0.5414923429 123640185.0393600464 94.2330017090
0.5418335199 123640185.1093597412 94.2320022583
0.5421746969 123640185.1793594360 94.2350006104
0.5425207615 123640185.2503585815 94.2360000610
0.5426718593 123640185.2813568115 92.3190002441
0.5108623505 123640185.3205108643 94.2350006104
0.5430130363 123640185.3513565063 92.3170013428
0.5112035275 123640185.3905105591 94.2360000610
0.5433591008 123640185.4223556519 92.3180007935
0.5115105510 123640185.4535140991 94.2360000610
0.5437002778 123640185.4923553467 92.3170013428
0.5118517280 123640185.5235137939 94.2360000610
0.5440414548 123640185.5623550415 92.3180007935
0.5121977925 123640185.5945129395 94.2360000610
0.5443875194 123640185.6333541870 92.3199996948
0.5125389695 123640185.6645050049 94.2360000610
0.5447286963 123640185.7033538818 92.3190002441
0.5128411651 123640185.7265090942 94.2360000610
0.5450698733 123640185.7733535767 92.3330001831
0.5131872296 123640185.7975082397 94.2360000610
0.5135284066 123640185.8675079346 94.2350006104
0.4828699529 123640185.9376602173 94.2379989624
0.4832160175 123640186.0086593628 94.2360000610
0.4835571945 123640186.0786514282 94.2360000610
0.4838593602 123640186.1406555176 94.2360000610
0.4842054248 123640186.2116546631 94.2259979248
0.5154341459 123640186.2584991455 92.3150024414
0.6104614139 123640186.4690399170 84.3280029297
0.4845466018 123640186.2816543579 94.2360000610
0.5157753229 123640186.3284988403 92.3349990845
0.4848877788 123640186.3516540527 94.2360000610
0.5161164999 123640186.3984985352 92.3229980469
0.6113339067 123640186.6480407715 83.0540008545
0.4851948619 123640186.4146499634 94.2360000610
0.4854629338 123640186.4696502686 92.3369979858
0.4855360389 123640186.4846496582 94.2350006104
0.4858041108 123640186.5396499634 92.3740005493
0.4548775554 123640186.5548019409 94.2220001221
0.4861452878 123640186.6096496582 92.3190002441
0.5812115669 123640186.8281860352 84.6669998169
0.4552236199 123640186.6258010864 94.2229995728
0.4864864647 123640186.6796493530 92.3820037842
0.6126693487 123640186.9220352173 83.7919998169
0.4555647969 123640186.6958007813 94.2160034180
0.4868324995 123640186.7506484985 92.3209991455
0.5820499063 123640187.0001831055 83.7649993896
0.4559060037 123640186.7658004761 94.2200012207
0.4871736765 123640186.8206481934 92.3290023804
0.4875148833 123640186.8906478882 92.3320007324
0.4878609180 123640186.9616470337 92.3190002441
0.5829613209 123640187.1871871948 85.0940017700
0.4572024643 123640187.0317916870 92.3270034790
0.5834195018 123640187.2811813354 84.4860000610
0.4575436413 123640187.1017913818 92.3219985962
0.5837606788 123640187.3511810303 84.4810028076
0.4575436413 123640187.1017913818 94.2220001221
0.4578507245 123640187.1647949219 92.3190002441
0.4268900752 123640187.1729431152 94.2310028076
0.4275724292 123640187.3129425049 94.2360000610
0.5540575385 123640187.6173324585 85.3140029907
0.4279184937 123640187.3839416504 94.2360000610
0.5223600864 123640187.6794815063 85.6320037842
0.5227451324 123640187.7584838867 85.6060028076
0.5228962302 123640187.7894821167 86.6549987793
0.4292490780 123640187.6569366455 92.3050003052
0.4921256602 123640187.8366317749 87.4720001221
0.4295902550 123640187.7269363403 92.3219985962
0.4927349091 123640187.9616317749 87.9739990234
0.4302774966 123640187.8679351807 92.3300018311
0.4619253576 123640188.0007858276 88.7910003662
0.4306186736 123640187.9379348755 92.3410034180
0.4309647381 123640188.0089340210 92.3410034180
0.4625346065 123640188.1257781982 89.2460021973
0.4626857042 123640188.1567840576 90.1660003662
0.4320662618 123640188.2349319458 90.1780014038
0.4323343337 123640188.2899322510 90.5719985962
0.4642843902 123640188.4847793579 87.4179992676
0.4002567232 123640188.2740859985 94.1969985962
0.4327924848 123640188.3839263916 91.5690002441
0.3696031272 123640188.3452377319 94.2190017700
0.4010560513 123640188.4380874634 92.1009979248
0.3699443042 123640188.4152374268 94.1979980469
0.4013241231 123640188.4930877686 92.2799987793
0.4016653001 123640188.5630798340 92.3320007324
0.4020113647 123640188.6340789795 92.3339996338
0.4023525417 123640188.7040786743 92.3349990845
0.3712749183 123640188.6882324219 94.2770004272
0.3715819716 123640188.7512359619 94.2949981689
0.3719231486 123640188.8212280273 94.2939987183
0.4361799061 123640189.0789184570 88.7259979248
0.3412646949 123640188.8913803101 94.3190002441
0.3416107595 123640188.9623794556 94.2910003662
0.4051307142 123640189.2740783691 89.1979980469
0.4054767489 123640189.3450775146 89.2630004883
0.4058179259 123640189.4150695801 89.2350006104
0.3747793138 123640189.4072265625 92.3270034790
0.3440867364 123640189.4703750610 92.3330001831
0.3444279134 123640189.5403747559 92.3359985352
0.3759978116 123640189.6572189331 90.1230010986
0.3447690904 123640189.6103744507 92.3420028687
0.3451102674 123640189.6803741455 92.3470001221
0.3454563320 123640189.7513732910 92.3509979248
0.3462556601 123640189.9153671265 90.6250000000
0.3465968370 123640189.9853668213 90.6250000000
0.3148758709 123640189.8375244141 94.5970001221
0.3152170479 123640189.9075241089 94.5999984741
0.2838656604 123640190.0406723022 94.6080017090
0.3477032483 123640190.2123641968 91.5289993286
0.2842068374 123640190.1106719971 94.6370010376
0.2845870256 123640190.1886749268 94.4759979248
0.2851231396 123640190.2986755371 93.7080001831
0.2855423093 123640190.3846740723 93.5589981079
0.2859224975 123640190.4626693726 93.3629989624
0.2864927351 123640190.5796661377 92.5970001221
0.2868729234 123640190.6576690674 92.3750000000
0.2874821723 123640190.7826690674 92.6409988403
0.2878233492 123640190.8526687622 92.6630020142
0.2567116022 123640190.8298187256 95.2109985352
0.2885885537 123640191.0096664429 92.3750000000
0.2570527792 123640190.8998184204 95.2379989624
0.2889297307 123640191.0796661377 92.3499984741
0.2892709076 123640191.1496582031 92.3359985352
0.2267013937 123640191.0329666138 95.3619995117
0.2583492696 123640191.1658096313 93.1620025635
0.2589585185 123640191.2908096313 92.3470001221
0.2592996955 123640191.3608093262 92.3470001221
0.2592996955 123640191.3608093262 93.4280014038
0.2596408725 123640191.4308090210 93.4300003052
0.2603281140 123640191.5718078613 92.3600006104
0.2606692910 123640191.6418075562 92.3610000610
0.2610153556 123640191.7128067017 92.3570022583
0.2298256308 123640191.6739578247 93.9140014648
0.1988601238 123640191.6811065674 95.8079986572
0.2304348797 123640191.7989578247 94.0690002441
0.1991671771 123640191.7441101074 95.8919982910
0.1994693577 123640191.8061065674 95.9720001221
0.1997764260 123640191.8691101074 96.0130004883
0.2003856748 123640191.9941024780 94.3059997559
0.2001176029 123640191.9391021729 96.0569992065
0.2007268518 123640192.0641021729 94.2500000000
0.1684250534 123640192.0022583008 96.0970001221
0.1687272340 123640192.0642623901 96.1500015259
0.1690732837 123640192.1352615356 96.1930007935
0.1693754643 123640192.1972579956 96.2379989624
0.2027446926 123640192.4780960083 92.3130035400
0.1696825475 123640192.2602615356 96.2880020142
0.1701748073 123640192.3612594604 94.8960037231
0.2030907422 123640192.5490951538 92.3489990234
0.1699847132 123640192.3222579956 96.3420028687
0.1703259051 123640192.3922576904 96.3880004883
0.1708230525 123640192.4942550659 94.9960021973
0.1706329584 123640192.4552536011 96.4049987793
0.1399355233 123640192.5174026489 96.4860000610
0.2044603229 123640192.8300933838 92.3470001221
0.2048015147 123640192.9000930786 92.3610000610
0.2051475644 123640192.9710922241 92.3700027466
0.1734891236 123640193.0412521362 92.3759994507
0.1738303006 123640193.1112442017 92.3759994507
0.1416511536 123640192.8694000244 96.3050003052
0.1421824247 123640192.9784011841 95.7639999390
0.1425284743 123640193.0494003296 95.7850036621
0.1427916735 123640193.1034011841 95.9110031128
0.1430987418 123640193.1663970947 96.0029983521
0.1124012992 123640193.2285461426 96.0970001221
0.1126303673 123640193.2755508423 96.3359985352
0.1128594503 123640193.3225479126 96.5550003052
0.1132006273 123640193.3925476074 96.5690002441
0.1135466769 123640193.4635467529 96.5690002441
0.1138488725 123640193.5255432129 96.5670013428
0.1141559333 123640193.5885467529 96.6660003662
0.1469053328 123640193.9473876953 92.3850021362
0.1476315558 123640194.0963897705 92.3610000610
0.1479337364 123640194.1583862305 92.3700027466
0.1173142791 123640194.2365341187 92.3720016479
0.0846769884 123640193.9006881714 97.0139999390
0.1176554635 123640194.3065338135 92.3639984131
0.1179625168 123640194.3695373535 92.3750000000
0.1183037013 123640194.4395370483 92.3750000000
0.1186497509 123640194.5105361938 92.3769989014
0.1189909279 123640194.5805358887 92.3769989014
0.0894388705 123640194.8776779175 93.0130004883
0.0910765380 123640195.2136764526 92.3610000610
0.0914177075 123640195.2836761475 92.3820037842
0.0917247832 123640195.3466720581 92.4700012207
0.0599883497 123640195.4008331299 92.6409988403
0.0603685193 123640195.4788284302 92.5830001831
0.0607145801 123640195.5498275757 92.5149993896
0.0610947497 123640195.6278305054 92.5130004883
0.0614749193 123640195.7058258057 92.3880004883
0.0618161000 123640195.7758255005 92.3889999390
0.0621621497 123640195.8468246460 92.3870010376
0.0625033304 123640195.9168243408 92.3820037842
0.0628445074 123640195.9868240356 92.3850021362
0.0321860611 123640196.0569763184 92.3850021362
0.0332144685 123640196.2679672241 92.3990020752
0.0335605182 123640196.3389663696 92.3700027466
0.0338627100 123640196.4009704590 92.4459991455
0.0342087597 123640196.4719696045 92.4540023804
0.0034723300 123640196.5261154175 92.6520004272
0.0037793899 123640196.5891189575 92.6890029907
0.9611660838 123640175.1231994629 88.2910003662
0.9615072608 123640175.1931991577 88.3010025024
0.9308487773 123640175.2633438110 88.2939987183
0.9311948419 123640175.3343429565 88.2910003662
0.9623845220 123640175.3731918335 87.6490020752
0.9317650795 123640175.4513473511 87.6529998779
0.9320672750 123640175.5133438110 87.6549987793
0.9324523211 123640175.5923385620 87.6650009155
0.9329445958 123640175.6933441162 88.2060012817
0.9332857728 123640175.7633438110 88.2099990845
0.9336708188 123640175.8423385620 88.2119979858
0.9030123949 123640175.9124908447 88.2020034790
0.9342020750 123640175.9513397217 87.6750030518
0.9035826325 123640176.0294876099 87.6679992676
0.9348503351 123640176.0843353271 87.3750000000
0.9351135492 123640176.1383361816 86.9860000610
0.9353815913 123640176.1933364868 86.5910034180
0.9356496334 123640176.2483367920 86.3460006714
0.9359128475 123640176.3023376465 85.8580017090
0.9361809492 123640176.3573303223 85.5139999390
0.9375505447 123640176.6383285522 85.1460037231
0.9068969488 123640176.7094802856 85.1460037231
0.9384278655 123640176.8183288574 84.2639999390
0.9387348890 123640176.8813247681 83.9720001221
0.9092949629 123640177.2014770508 84.6110000610
0.9096361399 123640177.2714767456 84.4300003052
0.9099822044 123640177.3424758911 84.4160003662
0.9104354382 123640177.4354705811 82.8470001221
0.9107035398 123640177.4904708862 82.4879989624
0.9110836983 123640177.5684661865 82.4720001221
0.8828281164 123640178.1316146851 83.5699996948
0.9134817123 123640178.0604629517 81.4580001831
0.9137497544 123640178.1154632568 80.9560012817
0.8835104704 123640178.2716140747 83.3000030518
0.9141299725 123640178.1934661865 81.0000000000
0.8838565350 123640178.3426132202 83.2919998169
0.9162257314 123640178.6234588623 80.0510025024
0.8856062889 123640178.7016067505 80.0429992676
0.9172541499 123640178.8344573975 79.4899978638
0.8550542593 123640178.9987564087 82.5380020142
