-1.5011287928 846661.9592437744 72.9820022583
-0.5724082589 846661.4444465637 83.8830032349
-0.6043024659 846661.3889236450 83.8750000000
-1.5815633535 846661.8197212219 73.0630035400
-1.6091505289 846661.7585906982 73.1050033569
-1.6577069759 846661.6760063171 73.1210021973
-0.8400477767 846661.2264137268 82.7590026855
-1.7234108448 846661.6087837219 72.9700012207
-0.7730219364 846661.1161575317 83.9049987793
-1.7998417616 846661.5520439148 72.5910034180
-0.8494690657 846661.0608329773 83.5309982300
-1.8324511051 846661.4972190857 72.5729980469
-1.2191057205 846660.5481643677 83.1119995117
-1.2016386986 846660.4429969788 83.8219985962
-1.2285269499 846660.3825798035 83.9000015259
-1.2827883959 846660.3041725159 83.8960037231
-1.4099946022 846660.2970619202 82.7910003662
1.8588432074 846665.2739028931 83.4469985962
1.7545216084 846665.2444229126 82.7580032349
1.6350575686 846665.0549545288 82.7239990234
1.5807799101 846664.9779586792 82.7259979248
1.4235026836 846664.6940078735 82.8629989624
1.3916084766 846664.6384811401 82.8610000610
1.3583002090 846664.5829467773 82.8610000610
0.5495610237 846665.2419586182 72.2519989014
1.2983175516 846664.5101318359 82.7760009766
0.4402172267 846665.2187881470 71.4550018311
1.2664233446 846664.4546051025 82.7770004272
1.2786703110 846664.3111953735 83.7239990234
1.1909948587 846664.3101959229 82.8880004883
1.1360182762 846664.2324829102 82.9020004272
1.1091462374 846664.1706542969 82.9049987793
0.2229574472 846664.8620223999 71.4380035400
1.0498625040 846664.0985565186 82.8130035400
0.1686798036 846664.7850265503 71.4440002441
1.0108330250 846664.0486068726 82.7880020142
1.0404412746 846663.9329757690 83.5970001221
0.9861798286 846663.8545684814 83.5780029297
0.0332686789 846664.5677947998 71.4339981079
0.9700349569 846663.7822532654 83.8720016479
-0.0209927894 846664.4893875122 71.4250030518
0.9214784503 846663.6996688843 83.8750000000
0.8888852596 846663.6434288025 83.8740005493
0.8562759161 846663.5886077881 83.8730010986
0.6014007330 846663.1819076538 83.8730010986
0.5471392870 846663.1035003662 83.8759994507
-0.4647520185 846663.6562385559 72.0719985962
-0.4916240573 846663.5944099426 72.1419982910
-0.6974576712 846663.2278709412 72.3270034790
0.0909352899 846662.3692092896 83.8759994507
-0.9710161686 846662.9708786011 71.3750000000
0.0590410717 846662.3136863708 83.8830032349
-1.0036092997 846662.9146385193 71.3560028076
0.0040644598 846662.2359771729 83.8779983521
-0.0278297607 846662.1804580688 83.8820037842
-0.0604229495 846662.1242179871 83.8919982910
-0.2092974484 846662.0949363708 82.7750015259
-0.2419068068 846662.0401153564 82.7620010376
-1.2751467228 846662.4808769226 71.3850021362
-1.3229880333 846662.3975944519 71.3870010376
-1.3562964201 846662.3420562744 71.3880004883
-1.2873551846 846662.1879768372 72.8580017090
-1.4105578661 846662.2636489868 71.3880004883
-1.3149424791 846662.1268463135 72.8880004883
-1.3692039251 846662.0484390259 72.9240036011
-1.4177603722 846661.9658546448 72.9459991455
-0.4840337634 846661.4461669922 83.8880004883
-1.4446324110 846661.9040260315 72.9830017090
-0.5166269541 846661.3899269104 83.8909988403
-1.4938877821 846661.8207244873 73.0680007935
-1.5257821083 846661.7652015686 73.0770034790
-1.5750374794 846661.6819038391 73.0970001221
-1.7356578112 846661.7521972656 71.3600006104
-1.6235778332 846661.5979042053 73.1279983521
-0.7842664719 846661.1718940735 82.7669982910
-1.6561871767 846661.5430793762 73.1699981689
-0.7446300387 846661.0450592041 83.8489990234
-1.7714499235 846661.4809455872 72.5490036011
-0.8160549998 846660.9834289551 83.5149993896
-1.7983219624 846661.4191169739 72.5520019531
-1.8583207130 846661.3477172852 72.4970016479
-1.9125821590 846661.2693099976 72.4720001221
-1.2175858021 846660.4152336121 83.0640029907
-1.2058401108 846660.3156623840 83.8040008545
-1.2270071507 846660.2496528625 83.8870010376
-1.2812685966 846660.1712455750 83.8850021362
-1.4301431179 846660.1419639587 82.7789993286
-1.4627524614 846660.0871429443 82.7620010376
1.9810433388 846665.2859039307 83.3880004883
1.9477350712 846665.2303695679 83.3700027466
1.8484194279 846665.1959915161 82.7300033569
1.7296544313 846665.0072402954 82.7330017090
1.6753929853 846664.9288330078 82.7320022583
1.4855064154 846664.5900573730 82.8369979858
0.6488766074 846665.2763290405 71.8479995728
1.4312449694 846664.5116500854 82.8470001221
0.6448730230 846665.1935501099 72.2890014648
1.3936295509 846664.4617233276 82.7630004883
0.5341151357 846665.1703567505 71.4440002441
1.4275448322 846664.3404769897 83.6940002441
1.3117809296 846664.3221817017 82.8050003052
1.2575032711 846664.2451858521 82.8330001831
1.2249101400 846664.1889495850 82.8330001831
1.1763697863 846664.1049499512 82.8479995728
0.2951870561 846664.7914199829 71.4329986572
1.1437604427 846664.0501251221 82.8190002441
0.2632928491 846664.7359008789 71.4449996948
1.1054461002 846663.9994812012 82.7860031128
0.2140373886 846664.6526031494 71.4540023804
1.1076648235 846663.8672714233 83.5650024414
1.0743565559 846663.8117332458 83.5429992676
0.1271665543 846664.5193710327 71.4260025024
1.0481834412 846663.7506179810 83.6470031738
0.0729051009 846664.4409637451 71.4160003662
1.0103703737 846663.6561317444 83.8619995117
0.9827831388 846663.5950012207 83.8639984131
0.9292206764 846663.5173110962 83.8610000610
0.6902925968 846663.1383743286 83.8600006104
0.6410371661 846663.0550727844 83.8619995117
-0.3701390028 846663.6071128845 72.0910034180
-0.3977261782 846663.5459823608 72.0950012207
-0.6028446555 846663.1787452698 72.3330001831
0.2340886295 846662.4040832520 83.8700027466
0.1805261374 846662.3263893127 83.8730010986
-0.8764030933 846662.9217491150 71.3619995117
0.1529389620 846662.2652587891 83.8639984131
0.0040644598 846662.2359771729 82.7850036621
-0.0278297607 846662.1804580688 82.7630004883
0.0118066696 846662.0536231995 83.8970031738
-0.1153995618 846662.0465087891 82.7500000000
-1.1479405165 846662.4879913330 71.3830032349
-1.2022019625 846662.4095840454 71.3880004883
-1.2340961695 846662.3540611267 71.3820037842
-1.1442018747 846662.2228507996 72.8270034790
-1.2890728712 846662.2763519287 71.3580017090
-1.1934573650 846662.1395492554 72.8479995728
-1.2477188110 846662.0611419678 72.8880004883
-1.2746070623 846662.0007286072 72.9160003662
-0.3618335426 846661.4581718445 83.8750000000
-1.3231472969 846661.9167289734 72.9720001221
-0.3894207180 846661.3970413208 83.8740005493
-1.3985757828 846661.7723121643 73.0699996948
-1.4535524845 846661.6946067810 73.0830001831
-1.6148717403 846661.7641830444 71.3199996948
-1.4804245234 846661.6327743530 73.0999984741
-1.6410447359 846661.7030677795 71.3479995728
-1.5347020626 846661.5557823181 73.1340026855
-1.6960213184 846661.6253623962 71.3479995728
-0.6174238324 846661.0521697998 83.8690032959
-0.6557381749 846661.0015258789 83.7249984741
-0.7264641523 846660.9406089783 83.5230026245
-1.7037250996 846661.3714065552 72.5550003052
-1.7637076378 846661.2985877991 72.4589996338
-1.8179690838 846661.2201843262 72.4400024414
-1.1510773897 846660.3502311707 83.0000000000
-1.1836705208 846660.2939910889 83.0029983521
-1.1381152868 846660.2061195374 83.8860015869
-1.1873706579 846660.1228179932 83.8860015869
-1.3362451792 846660.0935401917 82.7809982300
-1.3681393862 846660.0380172729 82.7770004272
2.0293858051 846665.3253479004 83.3639984131
1.9974917173 846665.2698287964 83.3639984131
1.8981760740 846665.2354583740 82.7389984131
1.7518239021 846664.9855728149 82.7440032959
0.7203015089 846665.3379592896 71.9059982300
1.4969487190 846664.5788726807 82.7500000000
0.6767672300 846665.2490692139 72.0270004272
1.4426872730 846664.5004653931 82.7460021973
0.5831727982 846665.2091064453 71.4440002441
1.4715803862 846664.3855285645 83.6200027466
1.4230400324 846664.3015289307 83.6259994507
1.3282293081 846664.3061065674 82.7630004883
0.3666119874 846664.8530578613 71.4479980469
0.3123505414 846664.7746505737 71.4440002441
0.2580729127 846664.6976547241 71.4440002441
0.2254797071 846664.6414184570 71.4420013428
1.0190764666 846663.8224143982 82.7669982910
0.1226617694 846664.4804229736 71.4319992065
1.0365433693 846663.7172470093 83.4329986572
0.9989280105 846663.6673164368 83.4169998169
0.9456689954 846663.5012359619 83.8720016479
0.9187969565 846663.4394035339 83.8730010986
0.8638203740 846663.3616981506 83.8690032959
0.8319261074 846663.3061752319 83.8639984131
0.6907938123 846663.0945358276 83.8649978638
0.6632066369 846663.0334053040 83.8850021362
-0.3479695022 846663.5854454041 72.1480026245
-0.4022309780 846663.5070381165 72.1650009155
0.4033093154 846662.6330146790 83.8759994507
-0.5538031459 846663.2189064026 72.3359985352
0.3707161248 846662.5767745972 83.8750000000
0.3214606941 846662.4934768677 83.8750000000
0.2895664573 846662.4379539490 83.8750000000
0.1623602360 846662.4308433533 82.7860031128
0.1073836237 846662.3531341553 82.7770004272
-0.8599547744 846662.9056739807 71.3779983521
0.0754894018 846662.2976112366 82.7760009766
0.0212279409 846662.2192039490 82.7750015259
-0.9461104870 846662.7717437744 71.3980026245
-0.9953659177 846662.6884460449 71.3850021362
0.0339761600 846662.0319519043 83.8880004883
-1.0553485155 846662.6156272888 71.2890014648
-0.9711753726 846662.4900093079 72.7220001221
-1.0197156668 846662.4060134888 72.7350006104
-1.0523250103 846662.3511886597 72.7610015869
-1.1008653641 846662.2671890259 72.7880020142
-1.1558419466 846662.1894798279 72.7809982300
-1.1820150614 846662.1283683777 72.7779998779
-0.3396640420 846661.4365005493 83.8750000000
-0.3729723990 846661.3809623718 83.8750000000
-1.3552392721 846661.8166542053 73.0510025024
-1.4891853333 846661.9042243958 71.3639984131
-1.3821275234 846661.7562370300 73.0970001221
-1.4363889694 846661.6778297424 73.1200027466
-0.6891522408 846661.0789299011 82.7659988403
-0.6278475523 846660.9742660522 83.8740005493
-0.7093006968 846660.9238319397 83.4599990845
-1.6422226429 846661.3112945557 73.3089981079
-1.8149842024 846661.3920555115 71.3580017090
-1.6698098183 846661.2501640320 73.3690032959
-1.7183500528 846661.1661643982 73.3899993896
-1.7502442598 846661.1106414795 73.4020004272
-1.8941128254 846661.0764656067 72.3190002441
-1.9483742714 846660.9980583191 72.3079986572
-1.1996177435 846660.2662315369 82.8050003052
-1.2315119505 846660.2107086182 82.8160018921
-1.2590991259 846660.1495780945 82.8270034790
-1.2028166056 846660.0512199402 83.8820037842
-1.2570780516 846659.9728126526 83.8840026855
-1.2889722586 846659.9172897339 83.8750000000
-1.4271196127 846659.8775253296 82.9329986572
-1.4756598473 846659.7935256958 82.9420013428
2.1239988804 846665.2762222290 83.3089981079
2.0863835812 846665.2262954712 83.1490020752
2.0428493023 846665.1374053955 83.3420028687
2.0159611702 846665.0769882202 83.3610000610
1.8304897547 846664.9086837769 82.7360000610
1.7971814871 846664.8531494141 82.7389984131
1.6834386587 846664.6580886841 82.7610015869
1.6298761368 846664.5803909302 82.7610015869
0.8370840549 846665.2671661377 72.0810012817
1.6022889614 846664.5192642212 82.7620010376
0.7992709279 846665.1726837158 72.2910003662
0.6842059493 846665.1551055908 71.4400024414
1.5719145536 846664.3308105469 83.5640029907
1.4611566067 846664.3076248169 82.7470016479
1.4292623997 846664.2521057129 82.7379989624
0.5154864788 846664.8823318481 71.4440002441
0.4662310481 846664.7990341187 71.4400024414
0.4126685560 846664.7213439941 71.4410018921
0.3800753653 846664.6651077271 71.4380035400
0.3308199048 846664.5818023682 71.4380035400
0.2772574127 846664.5041122437 71.4339981079
0.2439490855 846664.4485778809 71.4400024414
1.0599292517 846663.6510429382 82.7630004883
1.0385644436 846663.5404815674 83.2910003662
1.0066702366 846663.4849586487 83.2890014648
0.9524087310 846663.4065513611 83.2770004272
0.9315451980 846663.2521553040 83.8710021973
0.8772836924 846663.1737480164 83.8700027466
0.8453894854 846663.1182250977 83.8720016479
0.7904129028 846663.0405158997 83.8700027466
0.7642398477 846662.9794006348 83.8750000000
0.7309314609 846662.9238624573 83.8750000000
-0.3026119173 846663.4530181885 72.1559982300
0.6447758079 846662.7899322510 83.8629989624
-0.3295001388 846663.3926048279 72.2099990845
0.5897992253 846662.7122268677 83.8629989624
0.5579049587 846662.6567039490 83.8629989624
0.5029283762 846662.5789947510 83.8610000610
-0.4534689486 846663.1641883850 72.3330001831
0.4703351557 846662.5227584839 83.8610000610
0.3438279331 846662.5163612366 82.7770004272
0.2895664573 846662.4379539490 82.7720031738
0.2619792819 846662.3768234253 82.7630004883
0.2084167898 846662.2991294861 82.7580032349
-0.8138982058 846662.7739639282 71.3880004883
-0.7411512136 846662.6581153870 72.6050033569
-0.7889925241 846662.5748291016 72.6200027466
0.0339761600 846662.0319519043 82.7620010376
-0.8439691663 846662.4971237183 72.6520004272
0.1017009765 846661.9224128723 83.8909988403
-0.8708412051 846662.4352912903 72.6920013428
-0.9193976521 846662.3527069092 72.7119979858
-0.9519908428 846662.2964706421 72.7259979248
-0.1850683838 846661.4601898193 83.8779983521
-0.2400449961 846661.3824844360 83.8840026855
-1.3888510466 846661.8495063782 71.3550033569
-1.3310487270 846661.6182212830 73.1539993286
-0.5895332098 846661.0249099731 82.7500000000
-0.5275295377 846660.9209594727 83.8960037231
-0.6096816063 846660.8698120117 83.4580001831
-1.7632064819 846661.2547531128 71.3590011597
-1.7957996130 846661.1985130310 71.3560028076
-1.6449041367 846661.0510292053 73.4199981689
-1.8507761955 846661.1208076477 71.3450012207
-1.6941595078 846660.9677314758 73.4980010986
-1.8986176252 846661.0375213623 71.3499984741
-1.7477220297 846660.8900375366 73.5230026245
-1.7753092051 846660.8289070129 73.5439987183
-1.8238495588 846660.7449073792 73.5810012817
-0.9907605648 846660.3683280945 82.7799987793
-1.9956086874 846660.7379951477 72.1539993286
-1.0450220108 846660.2899208069 82.7850036621
-1.0776313543 846660.2350959778 82.7779998779
-1.0163266659 846660.1304321289 83.8880004883
-1.0698891878 846660.0527420044 83.8889999390
-1.1024824381 846659.9965019226 83.9020004272
-1.1517378092 846659.9132041931 83.9020004272
-1.1836320162 846659.8576812744 83.9010009766
-1.2386087179 846659.7799720764 83.8990020752
-1.2705029249 846659.7244491577 83.8970031738
-1.4022139311 846659.6783905029 83.0520019531
-1.4298011065 846659.6172599792 83.0849990845
-1.4840625525 846659.5388526917 83.1139984131
-2.2501032352 846659.3702812195 77.3050003052
-2.3043646812 846659.2918739319 77.3050003052
2.2295370102 846665.2611694336 83.2770004272
2.1962285042 846665.2056274414 83.2740020752
2.1090543270 846665.1607894897 82.7770004272
2.1157939434 846665.0661087036 83.3470001221
1.9027193785 846664.8380889893 82.7360000610
1.7615871429 846664.6264495850 82.7450027466
1.7289938927 846664.5702133179 82.7460021973
0.9088124633 846665.2404098511 72.0210037231
1.6797385216 846664.4869155884 82.7480010986
0.8990877271 846665.1632156372 72.2809982300
0.7833237648 846665.1449203491 71.4469985962
1.6710323095 846664.3206329346 83.5640029907
1.5609734058 846664.2981567383 82.7580032349
1.5067119598 846664.2197494507 82.7580032349
0.5929360390 846664.8499832153 71.4380035400
0.5660478473 846664.7895660400 71.4390029907
0.5117864013 846664.7111587524 71.4380035400
0.4575249255 846664.6327514648 71.4339981079
0.4306367040 846664.5723419189 71.4300003052
0.3763752580 846664.4939346313 71.4309997559
0.3213986456 846664.4162216187 71.4309997559
0.2952255905 846664.3551101685 71.4410018921
1.1104905605 846663.5582771301 82.8310012817
1.1115092039 846663.4691886902 83.2770004272
1.0522255898 846663.3970870972 83.2610015869
1.0097098351 846663.2191047668 83.8330001831
0.9771004915 846663.1642799377 83.8629989624
0.9445073009 846663.1080436707 83.8610000610
0.8959508538 846663.0254592896 83.8629989624
0.8633576632 846662.9692230225 83.8610000610
0.8083810210 846662.8915138245 83.8639984131
-0.2027951181 846663.4435539246 72.1520004272
0.7222253680 846662.7575836182 83.8710021973
-0.2246611416 846663.3768310547 72.2210006714
0.6896160245 846662.7027587891 83.8740005493
0.6410756707 846662.6187591553 83.8750000000
0.6077673435 846662.5632209778 83.8720016479
-0.3543511331 846663.1540069580 72.3470001221
0.4212774932 846662.4840087891 82.7630004883
0.3944054544 846662.4221801758 82.7600021362
0.3401277959 846662.3451881409 82.7389984131
0.3075346053 846662.2889480591 82.7239990234
-0.7147803903 846662.7637825012 71.3610000610
-0.6630026698 846662.6264801025 72.5780029297
-0.6898747087 846662.5646514893 72.6110000610
-0.7448513508 846662.4869422913 72.6419982910
0.1791505367 846661.8900604248 83.8880004883
-0.7984138131 846662.4092483521 72.6080017090
-0.8260009885 846662.3481178284 72.6699981689
-0.8745412827 846662.2641181946 72.6819992065
-0.1076188311 846661.4278411865 83.8550033569
-0.1409271657 846661.3723030090 83.8619995117
-0.1944896579 846661.2946090698 83.8509979248
-1.3114014864 846661.8171539307 71.3610000610
-1.3440109491 846661.7623291016 71.3489990234
-1.2312319279 846661.6087532043 73.1250000000
-1.2854933739 846661.5303459167 73.1250000000
-0.4961365163 846661.0203208923 82.6800003052
-0.5439778566 846660.9370384216 82.7600021362
-0.4826731682 846660.8323707581 83.8479995728
-1.7183500528 846661.1661643982 71.3470001221
-1.5674545765 846661.0186805725 73.4199981689
-1.7502442598 846661.1106414795 71.3440017700
-1.6217321157 846660.9416847229 73.4560012817
-1.8052209616 846661.0329322815 71.3470001221
-1.6486041546 846660.8798561096 73.4889984131
-1.6978596449 846660.7965583801 73.5279998779
-1.7297538519 846660.7410354614 73.5559997559
-0.9133110046 846660.3359756470 82.7850036621
-1.9167449474 846660.7056617737 72.1559982300
-0.9452052116 846660.2804565430 82.7880020142
-1.0001817942 846660.2027473450 82.7850036621
-0.9374630451 846660.0980987549 83.8740005493
-0.9707713723 846660.0425605774 83.8740005493
-1.0250328779 846659.9641532898 83.8759994507
-1.0576422215 846659.9093284607 83.8779983521
-1.1061824560 846659.8253288269 83.8840026855
-1.1380766630 846659.7698059082 83.8750000000
-1.1930533648 846659.6920967102 83.8820037842
-1.2256464958 846659.6358604431 83.8830032349
-1.3523515463 846659.5849113464 83.0849990845
-1.3842457533 846659.5293884277 83.1110000610
-1.9496728182 846659.6891059875 77.3290023804
-2.1783750057 846659.3435211182 77.2910003662
-2.2045478821 846659.2824058533 77.3079986572
2.3122065067 846665.2670593262 83.2070007324
2.2517063618 846665.2395019531 82.8059997559
2.0904257298 846664.8727645874 83.3320007324
2.0354490280 846664.7950592041 83.3430023193
1.9642218351 846664.7779769897 82.7590026855
1.9099603891 846664.6995697021 82.7500000000
1.8773672581 846664.6433334351 82.7450027466
1.0360187292 846665.2475204468 72.2109985352
0.9874783754 846665.1635208130 72.2760009766
0.8774194121 846665.1410522461 71.4580001831
1.7594068050 846664.3223495483 83.4899978638
1.6543700695 846664.2935714722 82.7649993896
0.7898496389 846665.0071029663 71.4440002441
0.7362871766 846664.9294128418 71.4540023804
0.7086999416 846664.8682785034 71.4440002441
0.6008760333 846664.7121810913 71.4390029907
0.5732888579 846664.6510467529 71.4339981079
0.5190273523 846664.5726394653 71.4430007935
0.3829011023 846664.3561096191 71.4380035400
0.3293386102 846664.2784194946 71.4530029297
1.0480242968 846663.2697525024 83.1240005493
1.0147159100 846663.2142105103 83.1050033569
0.9447050691 846663.1525955200 82.8000030518
0.9113967419 846663.0970573425 82.7779998779
0.9191389680 846662.9146995544 83.8750000000
0.8698834777 846662.8314018250 83.8769989014
0.8379892707 846662.7758789063 83.8759994507
-0.1412926763 846663.3834419250 72.1770019531
0.7837278247 846662.6974716187 83.8750000000
-0.1848269552 846663.2945480347 72.2789993286
0.6508004069 846662.6959495544 82.7710037231
0.6022439599 846662.6133651733 82.7669982910
0.5696507692 846662.5571289063 82.7630004883
-0.3956665993 846662.9329032898 72.4440002441
-0.4232538044 846662.8717727661 72.4830017090
-0.4768162668 846662.7940826416 72.4990005493
-0.5260717273 846662.7107810974 72.4980010986
-0.5586649179 846662.6545448303 72.4869995117
-0.7075394392 846662.6252632141 71.3710021973
-0.7394336462 846662.5697402954 71.3750000000
0.1952954084 846661.9623756409 82.7720031738
-0.7944102287 846662.4920310974 71.3759994507
0.2406529933 846661.8299484253 83.9000015259
-0.8972281814 846662.3310394287 71.3750000000
-0.0142221600 846661.4232521057 83.8840026855
-0.0461163782 846661.3677291870 83.8850021362
-1.2613414526 846661.7682266235 71.2799987793
-1.2825084925 846661.7022171021 71.3610000610
-1.1697294712 846661.5486412048 73.2070007324
-1.2239909172 846661.4702339172 73.2160034180
-0.4346340597 846660.9602088928 82.7570037842
-0.3669092357 846660.8506660461 83.8750000000
-0.4211707115 846660.7722587585 83.8820037842
-0.6888102293 846660.5542259216 82.7860031128
-1.7437185049 846660.9728202820 71.3359985352
-0.7380657196 846660.4709243774 82.7850036621
-1.8037010431 846660.9000053406 71.3010025024
-0.6753469110 846660.3662757874 83.8779983521
-1.6363571882 846660.7364463806 73.5690002441
-0.7086552382 846660.3107376099 83.8860015869
-0.7629166842 846660.2323303223 83.8860015869
-1.9391121864 846660.6827735901 71.2770004272
-0.8779816031 846660.2147521973 82.9619979858
-1.7436798811 846660.5365066528 73.7080001831
-1.9660004377 846660.6223602295 71.3349990845
-1.7929353714 846660.4532089233 73.7610015869
-1.8471968174 846660.3748016357 73.7919998169
-2.0078170300 846660.4450950623 71.9580001831
-1.8740850687 846660.3143844604 73.8209991455
-2.0627937317 846660.3673858643 71.9300003052
-2.0953869820 846660.3111457825 71.8860015869
-1.1181260347 846659.8803520203 82.6800003052
-1.0504012108 846659.7708091736 83.8840026855
-1.0822954178 846659.7152862549 83.8649978638
-1.7315921783 846659.9122314453 77.2399978638
-1.7527592182 846659.8462219238 77.3769989014
-1.3025949001 846659.6243743896 82.5080032349
-1.8070206642 846659.7678146362 77.3830032349
-1.2234277725 846659.5036468506 83.8730010986
-1.8453350067 846659.7171707153 77.3190002441
-1.2510149479 846659.4425163269 83.8769989014
-1.3894656897 846659.4911422729 82.4390029907
-1.2829091549 846659.3869934082 83.8779983521
-1.3981717825 846659.3248634338 83.3199996948
-1.4257589579 846659.2637329102 83.3430023193
-1.4800204039 846659.1853256226 83.3610000610
-2.1225936413 846659.2890014648 77.2620010376
-2.1430454254 846659.2222938538 77.4160003662
2.4341926575 846665.2359313965 83.1480026245
2.3729937077 846665.2076492310 82.7389984131
2.1507117748 846664.8571853638 82.7509994507
2.1188175678 846664.8016662598 82.7519989014
2.0645561218 846664.7232589722 82.7529983521
2.0220241547 846664.5466918945 83.3600006104
1.1348329782 846665.3257293701 71.4560012817
1.9894310236 846664.4904556274 83.3610000610
1.1637260914 846665.2107925415 72.3140029907
1.0536834002 846665.1869049072 71.4580001831
1.9025602341 846664.3572235107 83.3489990234
0.9987067580 846665.1091995239 71.4459991455
1.8756881952 846664.2953948975 83.4160003662
1.7770715952 846664.2617340088 82.7630004883
0.9175570607 846664.9703750610 71.4720001221
0.7278844714 846664.6747360229 71.4440002441
0.6729078889 846664.5970306396 71.4440002441
0.4563470781 846664.2409820557 71.4169998169
0.4020856023 846664.1625747681 71.4300003052
1.0448253155 846663.0547409058 82.9700012207
0.9905638695 846662.9763336182 82.9550018311
0.9305812716 846662.9035186768 82.8190002441
0.8979719281 846662.8486938477 82.8440017700
0.8653786778 846662.7924575806 82.7910003662
0.9057140946 846662.6663360596 83.8730010986
-0.0621255301 846663.2627143860 72.2770004272
0.8564586639 846662.5830383301 83.8860015869
0.8238654733 846662.5267982483 83.8850021362
0.7703029513 846662.4491081238 83.8850021362
-0.1925306469 846663.0405921936 72.3759994507
-0.2194026858 846662.9787635803 72.3980026245
-0.2743792832 846662.9010543823 72.4020004272
-0.3279417753 846662.8233642578 72.4039993286
-0.5855531096 846662.5941276550 71.3509979248
-0.6398146152 846662.5157203674 71.3320007324
0.2623212636 846661.8521194458 82.7500000000
0.3083778322 846661.7204093933 83.8909988403
-0.8021139503 846662.2380752563 71.3610000610
-0.8563753963 846662.1596679688 71.3629989624
-0.9113519788 846662.0819587708 71.3710021973
-0.9375250340 846662.0208473206 71.3750000000
0.1077641323 846661.3921165466 83.8820037842
0.0751709267 846661.3358802795 83.8769989014
-1.1821743250 846661.6474990845 71.3410034180
-1.2147836685 846661.5926780701 71.3420028687
-1.0969824791 846661.4327926636 73.2490005493
-0.3611880839 846660.8450775146 82.7570037842
-0.2991844118 846660.7411270142 83.8779983521
-0.3534458876 846660.6627197266 83.8860015869
-1.4856059551 846661.1582183838 71.3430023193
-0.4965992272 846660.6278457642 82.7809982300
-1.5405825377 846661.0805091858 71.3450012207
-0.4345955551 846660.5238952637 83.8850021362
-0.4671887457 846660.4676589966 83.8919982910
-0.5264723897 846660.3955574036 83.8040008545
-0.6315091252 846660.3667793274 83.0660018921
-1.5086497068 846660.6997184753 73.6490020752
-1.7302551270 846660.7848701477 71.2949981689
-0.6864857674 846660.2890701294 83.0410003662
-1.7571432590 846660.7244567871 71.3339996338
-1.8114048243 846660.6460494995 71.3199996948
-1.8663814068 846660.5683403015 71.3219985962
-1.8925544024 846660.5072250366 71.3270034790
-1.9475311041 846660.4295196533 71.3290023804
-1.7520825863 846660.2818374634 73.8290023804
-2.0017924309 846660.3511123657 71.3069992065
-1.8013380766 846660.1985359192 73.8629989624
-2.0336866379 846660.2955894470 71.3050003052
-1.8491793871 846660.1152534485 73.8980026245
-1.0504012108 846659.7708091736 82.6470031738
-1.8767665625 846660.0541229248 73.9580001831
-0.9552869797 846659.6778450012 83.9110031128
-2.1526496410 846660.0622825623 71.5490036011
-2.2183532715 846659.9950599670 71.3759994507
-1.6857334375 846659.7359657288 77.3720016479
-1.7119064331 846659.6748504639 77.3960037231
-1.7668830156 846659.5971450806 77.4260025024
-1.3281610012 846659.3864784241 82.3470001221
-1.7766077518 846659.5199508667 77.6839981079
-1.2158832550 846659.2767372131 83.8750000000
-1.3817235231 846659.3087844849 82.3219985962
-1.8251481056 846659.4359550476 77.7890014648
-1.2701609135 846659.1997451782 83.8830032349
-1.4143166542 846659.2525482178 82.2649993896
-1.3027540445 846659.1435089111 83.8880004883
-1.3684579134 846659.0762825012 83.6630020142
-1.4334627390 846659.0097770691 83.5120010376
-1.4610499144 846658.9486465454 83.5380020142
2.5002000332 846665.2147598267 83.1460037231
2.4237689972 846665.1580200195 82.7720031738
2.1855399609 846664.7798004150 82.7470016479
2.1305632591 846664.7020950317 82.7480010986
2.1430079937 846664.6032333374 83.3450012207
2.0887465477 846664.5248260498 83.3509979248
1.2008402348 846665.3045654297 71.4580001831
2.0611593723 846664.4636917114 83.3590011597
1.2087802887 846665.1667556763 72.3000030518
1.1754719019 846665.1112213135 72.2659988403
1.0654290915 846665.0873336792 71.4449996948
1.9257482290 846664.2464675903 83.4240036011
1.8430787325 846664.2405700684 82.7500000000
0.9842794538 846664.9485092163 71.4410018921
0.9300180078 846664.8701019287 71.4440002441
0.7938917279 846664.6535720825 71.4309997559
0.7403292656 846664.5758819580 71.4390029907
0.5173482895 846664.2247009277 71.4270019531
0.4687918425 846664.1421203613 71.4199981689
1.0948854685 846663.0058135986 82.9580001831
1.0565711260 846662.9551658630 82.9300003052
0.9965885282 846662.8823509216 82.8010025024
0.9811425805 846662.8107528687 83.0100021362
0.9097176790 846662.7491188049 82.7880020142
0.9724364877 846662.6444702148 83.8619995117
-0.0018394400 846663.2471389771 72.2070007324
0.9231810570 846662.5611724854 83.8740005493
0.8912867904 846662.5056495667 83.8730010986
-0.0772679523 846663.1027259827 72.2860031128
0.8363102078 846662.4279403687 83.8710021973
-0.1258082539 846663.0187263489 72.3339996338
-0.1750637144 846662.9354248047 72.3919982910
-0.2069579363 846662.8799057007 72.3980026245
-0.2619345486 846662.8021965027 72.4020004272
-0.3161959946 846662.7237892151 72.3970031738
-0.5188307166 846662.5722618103 71.3460006714
-0.5730922222 846662.4938545227 71.3310012817
0.3354637921 846661.8253746033 82.7389984131
0.3751001954 846661.6985435486 83.8750000000
-0.7627809644 846662.1996307373 71.3509979248
-0.7903681397 846662.1385002136 71.3600006104
-0.8446295857 846662.0600929260 71.3629989624
0.1744865030 846661.3702507019 83.8750000000
0.1195099130 846661.2925415039 83.8710021973
-1.1161670685 846661.6263351440 71.3359985352
-1.1697294712 846661.5486412048 71.3349990845
-1.0302762985 846661.4123420715 73.2450027466
-0.3161339760 846660.8010406494 82.7570037842
-0.2541303039 846660.6970901489 83.8830032349
-0.2867234945 846660.6408538818 83.8750000000
-1.4412668943 846661.1148796082 71.3369979858
-0.4305919707 846660.6066780090 82.7900009155
-1.4738601446 846661.0586433411 71.3330001831
-0.3678731620 846660.5020294189 83.8690032959
-1.5281215906 846660.9802360535 71.2770004272
-0.4228497744 846660.4243202209 83.8840026855
-0.4547439814 846660.3688011169 83.8759994507
-0.5597807169 846660.3400192261 83.0709991455
-1.4476485252 846660.6834449768 73.5830001831
-0.6140421629 846660.2616119385 83.0530014038
-1.7178103924 846660.6860122681 71.3190002441
-1.7453975677 846660.6248817444 71.3079986572
-1.7996590137 846660.5464744568 71.3150024414
-1.8532215357 846660.4687843323 71.3150024414
-1.6584881544 846660.3218002319 73.7809982300
-1.8808087111 846660.4076538086 71.3290023804
-1.7077436447 846660.2384986877 73.8089981079
-1.9350701571 846660.3292465210 71.3190002441
-1.7339166403 846660.1773872375 73.8509979248
-1.7831721306 846660.0940856934 73.8860015869
-1.9883291721 846660.1631622314 71.7789993286
-0.9836788177 846659.7489433289 82.6380004883
-2.0433058739 846660.0854530334 71.7259979248
-0.9109479785 846659.6345100403 83.8870010376
-2.1247589588 846660.0350227356 71.3330001831
-2.1790204048 846659.9566154480 71.3050003052
-1.6183120012 846659.7148132324 77.3610000610
-1.6732885838 846659.6371078491 77.3759994507
-1.6944395304 846659.5696868896 77.4580001831
-1.2607396841 846659.3653259277 82.3580017090
-1.7372747660 846659.4815101624 77.6380004883
-1.1715443134 846659.2334022522 83.8730010986
-1.3157162666 846659.2876167297 82.3190002441
-1.2034385204 846659.1778793335 83.8759994507
-1.3699777126 846659.2092132568 82.2600021362
-1.2526940107 846659.0945777893 83.8820037842
-1.3348460197 846659.0434303284 83.5130004883
-1.3674554825 846658.9886093140 83.4980010986
-1.9824252129 846659.1520004272 77.2740020752
-1.4159957170 846658.9046096802 83.5279998779
-2.0309817791 846659.0694160461 77.3190002441
2.6224000454 846665.2267684937 83.0410003662
2.5726435184 846665.1873016357 82.7770004272
2.5298080444 846665.0991287231 82.9710006714
2.4315111637 846664.9756622314 82.7760009766
2.3989017010 846664.9208450317 82.7630004883
2.3446402550 846664.8424377441 82.7630004883
2.2251763344 846664.6529617310 82.7480010986
1.3337676525 846665.3060836792 71.4960021973
1.3018734455 846665.2505569458 71.4860000610
1.3026781082 846665.1183319092 72.2630004883
2.0964887142 846664.3424682617 83.3050003052
1.2700849771 846665.0620956421 72.2779998779
2.0631804466 846664.2869262695 83.3180007935
1.9760061502 846664.2420883179 82.7789993286
0.9210979342 846664.6606826782 71.4380035400
0.8892037272 846664.6051635742 71.4410018921
0.6176663041 846664.1714019775 71.4240036011
0.5634048581 846664.0929946899 71.4250030518
0.2557719052 846663.4763755798 72.1510009766
0.2281847149 846663.4152450562 72.1669998169
0.1739232540 846663.3368377686 72.1819992065
1.0157730579 846662.6888084412 82.9390029907
0.1253667921 846663.2542533875 72.2109985352
0.9831636548 846662.6339874268 82.9670028687
0.9289022088 846662.5555801392 82.9300003052
0.8855656385 846662.5112380981 82.7809982300
0.8983138800 846662.3239898682 83.8690032959
0.8440524340 846662.2455825806 83.8779983521
0.8114592433 846662.1893463135 83.8759994507
0.7629027367 846662.1067619324 83.8850021362
-0.4249328375 846662.5238342285 71.3740005493
-0.4784953296 846662.4461441040 71.3710021973
0.4747192562 846661.6445236206 83.8880004883
0.4428250194 846661.5890007019 83.8850021362
0.3016927540 846661.3773612976 83.8750000000
0.2683843970 846661.3218231201 83.8820037842
-0.9397053123 846661.7167434692 71.3629989624
-0.9889608026 846661.6334457397 71.3610000610
-1.0208550692 846661.5779228210 71.3590011597
-1.0758316517 846661.5002136230 71.3479995728
-0.9356632233 846661.3632164001 73.2649993896
-1.1084247828 846661.4439773560 71.3330001831
-0.0183849707 846660.8596038818 83.8730010986
-0.9849187136 846661.2799148560 73.3300018311
-1.1619873047 846661.3662834167 71.3330001831
-0.0733615831 846660.7818946838 83.8750000000
-1.2112427950 846661.2829856873 71.3489990234
-0.1052557975 846660.7263717651 83.8759994507
-0.1602324098 846660.6486625671 83.8740005493
-0.1864054650 846660.5875473022 83.8880004883
-0.2857210636 846660.5531768799 83.2220001221
-1.3204423189 846660.6905555725 73.6110000610
-1.6781738997 846660.5591773987 71.3059997559
-1.7050621510 846660.4987640381 71.3130035400
-0.8948031068 846659.7068214417 82.5920028687
-1.9816055298 846660.0698966980 71.2649993896
-0.8163349628 846659.5853805542 83.8909988403
-2.0308609009 846659.9865951538 71.3190002441
-0.8482291698 846659.5298614502 83.8919982910
-1.8189642429 846659.8228378296 74.0500030518
-2.0634541512 846659.9303588867 71.3130035400
-1.5244140625 846659.6663894653 77.3880004883
-1.5786756277 846659.5879821777 77.3759994507
-1.6279309988 846659.5046806335 77.3740005493
-1.6598252058 846659.4491577148 77.3690032959
-1.9698212147 846659.5340080261 74.2490005493
-2.2531430721 846659.6361351013 71.2760009766
-2.0031294823 846659.4784698486 74.2910003662
-2.3016831875 846659.5521354675 71.3000030518
-2.3566598892 846659.4744262695 71.3000030518
-1.8009575605 846659.2375183105 77.3730010986
-2.3885540962 846659.4189033508 71.2600021362
-1.3736778498 846659.0380363464 82.0970001221
-1.7446750402 846659.1391601563 78.3330001831
-1.4055720568 846658.9825172424 82.0830001831
-1.7658258677 846659.0717391968 78.5000000000
-1.2825671434 846658.8622932434 83.8610000610
-1.4655547142 846658.9096984863 82.0110015869
-1.3101543188 846658.8011627197 83.8769989014
-1.3644157648 846658.7227554321 83.8489990234
-1.4236993790 846658.6506538391 83.7519989014
-1.4570077658 846658.5951156616 83.7639999390
2.7438852787 846665.2394714355 82.9749984741
2.6781814098 846665.1722488403 82.8089981079
2.6620366573 846665.0999298096 82.9739990234
2.5913105011 846665.0390167236 82.7910003662
2.5587174892 846664.9827728271 82.7630004883
2.5037407875 846664.9050674438 82.7630004883
2.3307142258 846664.6379089355 82.7360000610
2.3031270504 846664.5767745972 82.7460021973
1.4552527666 846665.3187866211 71.4410018921
1.4067124128 846665.2347869873 71.4720001221
1.3741030693 846665.1799621582 71.4970016479
1.3699017763 846665.0526275635 72.1800003052
2.1687183380 846664.2718734741 83.2600021362
1.3373085260 846664.9963912964 72.1360015869
2.1025133133 846664.2484893799 82.7750015259
1.2944731712 846664.9082107544 72.2720031738
1.2402117252 846664.8298034668 72.2799987793
1.0975596905 846664.7510986328 71.4329986572
1.0483042002 846664.6677932739 71.4430007935
0.9940426946 846664.5893859863 71.4420013428
0.9614333510 846664.5345687866 71.4469985962
0.6356344819 846664.0223999023 71.4260025024
0.5813730359 846663.9439888000 71.4189987183
0.5119691491 846663.7055931091 72.0270004272
0.4584066570 846663.6278991699 72.0660018921
0.4091511965 846663.5446014404 72.0820007324
0.3822791576 846663.4827728271 72.0970001221
0.3280015290 846663.4057769775 72.1080017090
0.2954083383 846663.3495407104 72.1090011597
0.2040327042 846663.1773643494 72.2919998169
0.1764455289 846663.1162338257 72.3300018311
0.1221840605 846663.0378265381 72.3550033569
0.9856859446 846662.4133834839 83.1460037231
0.0793487504 846662.9496498108 72.4380035400
0.9588139057 846662.3515548706 83.1800003052
0.9038372636 846662.2738456726 83.2099990845
0.8776642084 846662.2127304077 83.2919998169
0.8358474970 846662.0354652405 83.8740005493
0.8025391698 846661.9799270630 83.8759994507
0.7482777238 846661.9015197754 83.8750000000
-0.4055505693 846662.3748474121 71.3600006104
0.5419428349 846661.5788192749 83.8750000000
0.5150546432 846661.5184020996 83.8830032349
0.4288989604 846661.3844757080 83.8840026855
0.3739223480 846661.3067665100 83.8820037842
-0.8674757481 846661.6461486816 71.3229980469
-0.9217371941 846661.5677413940 71.3450012207
0.1733086705 846660.9784736633 83.8830032349
-0.9486253858 846661.5073242188 71.3629989624
0.1407154799 846660.9222373962 83.8830032349
-1.0028868914 846661.4289207458 71.3499984741
0.0871529877 846660.8445434570 83.8840026855
-0.0400532410 846660.8374328613 82.8000030518
-0.0340286195 846660.7434501648 83.3720016479
-0.0933122635 846660.6713485718 83.3010025024
-0.1819006801 846660.6264953613 82.7770004272
-0.1191818565 846660.5218467712 83.8850021362
-0.1684373170 846660.4385452271 83.8919982910
-1.1932361126 846660.6976661682 73.6190032959
-1.2474975586 846660.6192588806 73.6149978638
-1.6052291393 846660.4878845215 71.3000030518
-1.6321173906 846660.4274673462 71.3000030518
-0.8218583465 846659.6355285645 82.5449981689
-0.7491113544 846659.5196800232 83.9000015259
-0.7759995461 846659.4592628479 83.8960037231
-1.4195750952 846659.6506156921 77.3880004883
-1.4514693022 846659.5950927734 77.3769989014
-1.5057308674 846659.5166854858 77.3769989014
-1.5383402109 846659.4618606567 77.3750000000
-1.8490351439 846659.5459976196 74.2249984741
-1.8975915909 846659.4634094238 74.2529983521
-1.9301848412 846659.4071731567 74.2860031128
-1.9844462872 846659.3287658691 74.2890014648
-1.7280128002 846659.1662254333 77.3610000610
-1.7613210678 846659.1106872559 77.3610000610
-1.8091624975 846659.0274009705 77.3649978638
-1.9483121634 846659.0753097534 75.8899993896
-1.3990461826 846658.8446960449 81.9420013428
-1.7147632837 846658.9351387024 78.6750030518
-1.8424707651 846658.9718627930 77.4020004272
-1.4533076286 846658.7662887573 81.9400024414
-1.2921861410 846658.6521568298 83.8690032959
-1.4852018356 846658.7107658386 81.8820037842
-1.3240803480 846658.5966339111 83.8639984131
-1.3783417940 846658.5182266235 83.8629989624
-1.4109512568 846658.4634017944 83.8479995728
-1.5996599197 846658.5164031982 81.9609985352
2.7882242203 846665.1961288452 82.9749984741
2.7225203514 846665.1289062500 82.7809982300
2.7063755989 846665.0565948486 82.9580001831
2.6470918655 846664.9844970703 82.9290008545
2.6030564308 846664.9394378662 82.7509994507
2.5487949848 846664.8610305786 82.7590026855
2.3750531673 846664.5945739746 82.7360000610
2.3481812477 846664.5327453613 82.7440032959
1.5003068447 846665.2747497559 71.4449996948
1.4453302622 846665.1970443726 71.4580001831
1.4132382870 846665.0969696045 71.7720031738
1.4149558544 846665.0085906982 72.2220001221
2.2137725353 846664.2278366089 83.2620010376
1.3599792719 846664.9308853149 72.1969985962
2.1258993149 846664.1822814941 82.7779998779
1.3338061571 846664.8697738647 72.2669982910
1.0876371861 846664.6293487549 71.4390029907
1.0383816957 846664.5460510254 71.4440002441
1.0064874887 846664.4905319214 71.4550018311
0.7068616748 846664.0394744873 71.4140014648
0.6806886196 846663.9783630371 71.4250030518
0.5027456284 846663.5845642090 72.0670013428
0.4542053342 846663.5005645752 72.0790023804
0.4208969772 846663.4450263977 72.1050033569
0.3730556369 846663.3617439270 72.1380004883
0.3180790544 846663.2840347290 72.1380004883
0.2912069857 846663.2222061157 72.1490020752
0.2483716756 846663.1340293884 72.2890014648
1.1061685085 846662.5137634277 83.0000000000
0.1941102147 846663.0556221008 72.3170013428
1.0569131374 846662.4304618835 83.0970001221
0.1665230393 846662.9944915771 72.3850021362
1.0307400227 846662.3693466187 83.1240005493
0.9764785767 846662.2909393311 83.1380004883
0.9488914013 846662.2298088074 83.1689987183
0.9287429452 846662.0747146606 83.8750000000
0.8801864982 846661.9921264648 83.8759994507
0.8475933075 846661.9358901978 83.8730010986
0.7926166654 846661.8581809998 83.8779983521
-0.3343233764 846662.3919258118 71.3460006714
-0.3835788369 846662.3086280823 71.3470001221
0.5249771476 846661.6401481628 82.7340011597
0.5920029879 846661.5298919678 83.8970031738
0.4732379615 846661.3411369324 83.8710021973
0.4189764857 846661.2627296448 83.8629989624
-0.8773981929 846661.5244064331 71.3430023193
-0.9316596985 846661.4459991455 71.3470001221
0.1633861810 846660.8567314148 83.8610000610
-0.9578327537 846661.3848838806 71.3509979248
0.1314919591 846660.8012084961 83.8639984131
0.0988987684 846660.7449722290 83.8639984131
-0.0442545712 846660.7100982666 82.8840026855
-0.0489732884 846660.6280136108 83.2799987793
-0.1032347530 846660.5496063232 83.2669982910
-0.0691217333 846660.4729156494 83.8860015869
-1.1539031267 846660.6592254639 73.6009979248
-1.2088797092 846660.5815162659 73.6080017090
-1.5608901978 846660.4445457458 71.2949981689
-0.7998866439 846659.5693054199 82.5419998169
-0.7047723532 846659.4763412476 83.8840026855
-0.7583348751 846659.3986511230 83.8720016479
-1.3802422285 846659.6121711731 77.3470001221
-1.9678387642 846659.7935562134 71.3050003052
-1.4338046312 846659.5344772339 77.3580017090
-1.4613918066 846659.4733467102 77.3499984741
-1.5156532526 846659.3949394226 77.3489990234
-1.8313704729 846659.4853820801 74.1940002441
-1.8582587242 846659.4249687195 74.2600021362
-1.9067989588 846659.3409690857 74.2770004272
-1.6567856073 846659.1833038330 77.2910003662
-1.9343861341 846659.2798385620 74.3870010376
-2.2443821430 846659.3646888733 71.2750015259
-1.6836738586 846659.1228866577 77.3610000610
-1.7379353046 846659.0444793701 77.3600006104
-1.3163766861 846658.8505897522 81.9759979248
-1.6435362101 846658.9522171021 78.6110000610
-1.3482708931 846658.7950668335 81.9690017700
-1.6920764446 846658.8682174683 78.6689987183
-1.2145388126 846658.6643600464 83.8629989624
-1.4082535505 846658.7222518921 81.9290008545
-1.2471320629 846658.6081199646 83.8710021973
-1.3006945848 846658.5304298401 83.8600006104
-1.3340028524 846658.4748916626 83.8310012817
2.9689929485 846665.2809371948 82.7910003662
2.9370987415 846665.2254104614 82.7919998169
2.8828372955 846665.1470031738 82.7659988403
2.8495287895 846665.0914688110 82.7730026245
2.5077829361 846664.5515365601 82.7519989014
1.6599085331 846665.2935485840 71.4440002441
2.4542205334 846664.4738464355 82.7460021973
1.5999258757 846665.2207336426 71.4020004272
2.4169085026 846664.3355255127 83.1200027466
1.5187761784 846665.0819091797 71.4120025635
2.3626470566 846664.2571182251 83.1220016479
2.3071691990 846664.2232437134 82.7789993286
1.4376266003 846664.9430847168 71.4580001831
1.4169769287 846664.8318252563 71.8880004883
1.3672202826 846664.7923660278 71.6110000610
1.3022154570 846664.7258605957 71.4400024414
1.3087412119 846664.5880355835 72.2580032349
1.2704268694 846664.5373916626 72.1660003662
1.1610831022 846664.5142211914 71.4020004272
1.1061065197 846664.4365081787 71.3759994507
0.9231575131 846664.0476074219 71.8610000610
0.8688960671 846663.9692001343 71.8710021973
0.8413088918 846663.9080696106 71.8990020752
0.7927523851 846663.8254852295 71.9160003662
0.7384909391 846663.7470779419 71.9290008545
0.7058977485 846663.6908378601 71.9309997559
0.4086884856 846663.1521263123 72.3050003052
0.3753801584 846663.0965881348 72.2919998169
0.2514113486 846662.8681716919 72.4720001221
0.9394701123 846662.0642280579 82.7900009155
0.9075759053 846662.0087051392 82.7880020142
0.9193217158 846661.9091300964 83.4169998169
0.8981546760 846661.8431243896 83.5780029297
0.8496143222 846661.7591247559 83.6009979248
0.8341684341 846661.6875267029 83.8590011597
-0.2558713853 846662.2719001770 71.3610000610
0.8008601069 846661.6319885254 83.8820037842
0.7523198128 846661.5479888916 83.8850021362
0.7204256058 846661.4924659729 83.8909988403
0.6654489636 846661.4147567749 83.8960037231
0.6335547566 846661.3592338562 83.8960037231
0.5785781741 846661.2815284729 83.8880004883
-0.5266936421 846661.8374404907 71.3610000610
0.5459849238 846661.2252883911 83.8769989014
-0.5816702843 846661.7597312927 71.3649978638
0.4924224615 846661.1475982666 83.8720016479
0.4591141343 846661.0920562744 83.8560028076
0.3102396429 846661.0627784729 82.7740020752
0.3500738144 846660.9804954529 83.5230026245
0.2958123386 846660.9020881653 83.5090026855
-0.7342063785 846661.1229667664 73.4130020142
0.0234702602 846660.6005554199 82.7630004883
-0.0098380800 846660.5450172424 82.7610015869
-0.0138416598 846660.4622344971 83.1520004272
0.0036252800 846660.3570671082 83.9020004272
-0.9943014383 846660.6780204773 73.6250000000
-1.4331827164 846660.4078216553 71.3010025024
-1.4874441624 846660.3294143677 71.3050003052
-0.6771851778 846659.5374717712 82.4739990234
-0.5770649314 846659.4396171570 83.8899993896
-1.2199254036 846659.6302680969 77.3850021362
-0.6313263774 846659.3612098694 83.8980026245
-1.5682518482 846659.6658859253 74.1370010376
-1.3067961931 846659.4970359802 77.3369979858
-1.6225132942 846659.5874786377 74.1269989014
-1.3560516834 846659.4137382507 77.3580017090
-1.9641001225 846659.5284156799 71.4889984131
-1.7312501669 846659.3875274658 74.2630004883
-1.8920682669 846659.4132652283 72.7500000000
-1.9974083900 846659.4728775024 71.5270004272
-1.6406407356 846659.2556190491 75.8010025024
-1.7855116129 846659.3091201782 74.2590026855
-1.9067989588 846659.3409690857 72.9720001221
-1.6682279110 846659.1944885254 75.8180007935
-1.5566653013 846659.0854454041 77.3710021973
-1.1560598612 846658.8686866760 82.0260009766
-1.6045066118 846659.0021629333 77.4199981689
-1.1936752796 846658.8187561035 81.9680023193
-1.4986652136 846658.8987159729 78.8730010986
-1.0599431992 846658.6880493164 83.8629989624
-1.2486518621 846658.7410507202 81.9160003662
-1.3978297710 846658.8001594543 80.2910003662
-1.0925364494 846658.6318092346 83.8720016479
-1.2919883728 846658.6967086792 81.7630004883
-1.4413641691 846658.7112655640 80.4100036621
-1.1410928965 846658.5492248535 83.8629989624
-1.1736860275 846658.4929885864 83.8830032349
-1.2062953711 846658.4381637573 83.8850021362
-1.2605569363 846658.3597564697 83.8820037842
-1.2931500673 846658.3035202026 83.8779983521
-1.3474277258 846658.2265281677 83.8740005493
-1.5468635559 846658.2900123596 81.7610015869
-1.3800208569 846658.1702880859 83.8750000000
-1.5465600491 846658.2016220093 82.2750015259
-1.4349975586 846658.0925788879 83.8710021973
-1.5727331638 846658.1405067444 82.3290023804
-1.6219886541 846658.0572052002 82.4199981689
3.0140471458 846665.2369003296 82.8290023804
2.9764316082 846665.1869659424 82.7630004883
2.9431233406 846665.1314315796 82.7580032349
2.8724136353 846665.0690994263 82.4960021973
2.8398041725 846665.0142745972 82.4860000610
2.8248755932 846664.8974227905 82.9860000610
2.5471158028 846664.5130920410 82.7450027466
2.5202276707 846664.4526824951 82.7480010986
2.4562413692 846664.2970809937 83.1200027466
2.4012649059 846664.2193756104 83.0419998169
1.4493722916 846664.8435134888 71.4720001221
1.4172803164 846664.7434387207 71.7720031738
1.3522756100 846664.6769256592 71.6200027466
1.3082400560 846664.6318740845 71.4420013428
1.3154810667 846664.4933547974 72.2580032349
1.2612034082 846664.4163589478 72.2570037842
1.1728289127 846664.4146423340 71.4029998779
1.0103318691 846664.0924453735 71.8050003052
0.9567693472 846664.0147552490 71.8369979858
0.9291821718 846663.9536247253 71.8470001221
0.8749206662 846663.8752174377 71.8600006104
0.7984735370 846663.8198928833 71.5260009766
0.7937710285 846663.7363929749 71.8550033569
0.4689745903 846663.1365509033 72.3089981079
0.2900291681 846662.8304290771 72.4850006104
0.2581349313 846662.7749061584 72.5080032349
0.9193217158 846661.9091300964 82.7809982300
0.8657591939 846661.8314399719 82.7740020752
0.9099004269 846661.7435493469 83.6380004883
0.8620591164 846661.6602668762 83.6559982300
0.8344718814 846661.5991363525 83.7480010986
-0.2491316348 846662.1772193909 71.3450012207
0.7916527987 846661.5095443726 83.8830032349
0.7590433955 846661.4547195435 83.8919982910
0.7264502048 846661.3984832764 83.8990020752
0.6721726060 846661.3214912415 83.9010009766
