0.0933971778 1619428.9881706238 92.0670013428
0.0907964408 1619428.9116573334 92.0830001831
0.0962352678 1619428.8125095367 92.0279998779
0.0622642115 1619428.7309074402 92.0410003662
-0.0505840592 1619427.1696758270 86.9280014038
0.0596634708 1619428.6543941498 92.0810012817
-0.0501957498 1619427.0857410431 86.9319992065
-0.0847060680 1619426.9198322296 86.9720001221
-0.0962739512 1619426.8655815125 87.0810012817
-0.1100836173 1619426.8168945313 87.2220001221
-0.1156734079 1619426.7478027344 87.2659988403
-0.1218171418 1619426.6774082184 87.3209991455
0.8434442282 1619432.9794731140 89.0230026245
0.8408434391 1619432.9029579163 89.0250015259
0.8098614216 1619432.8139343262 89.0299987793
0.7891607881 1619432.6967124939 88.9440002441
0.7869336605 1619432.6192703247 88.9290008545
0.7903110385 1619432.5279159546 88.9049987793
0.7610168457 1619432.4320259094 88.8820037842
0.7614051700 1619432.3480949402 88.8470001221
0.7351000309 1619432.2447814941 88.8170013428
0.7354883552 1619432.1608505249 88.8020019531
0.7130998373 1619432.0504913330 88.7239990234
0.6983773112 1619431.9184265137 88.5650024414
0.6786041856 1619431.8015766144 88.4560012817
0.6786041856 1619431.8015766144 88.7360000610
0.6612662077 1619431.6760044098 88.6060028076
0.6556764245 1619431.6069126129 88.6480026245
0.6444821954 1619431.5517330170 88.7470016479
0.6353493929 1619431.4887599945 88.8290023804
0.6271442175 1619431.4261608124 88.9160003662
0.6023923159 1619430.9871158600 87.3470001221
0.6155763268 1619431.3719100952 89.0080032349
0.5932595134 1619430.9241428375 87.4110031128
0.6073710918 1619431.3093109131 89.0970001221
0.5876697302 1619430.8550510406 87.4800033569
0.6133491993 1619431.2944698334 89.3190002441
0.5824536085 1619430.7850303650 87.5289993286
0.5982383490 1619431.2463378906 89.4550018311
0.5509470105 1619430.5286941528 86.9300003052
0.5986266732 1619431.1624031067 89.4530029297
0.5216528177 1619430.4328041077 86.9300003052
0.5672709942 1619431.0743083954 89.4670028687
0.5194256902 1619430.3553638458 86.9300003052
0.5198140144 1619430.2714309692 86.9290008545
0.4875307977 1619430.1829605103 86.9309997559
0.4879191220 1619430.0990276337 86.9260025024
0.4883074164 1619430.0150947571 86.9300003052
0.4563978314 1619429.9256973267 86.9390029907
0.4567861259 1619429.8417644501 86.9400024414
0.4621532559 1619430.0800247192 88.0869979858
0.4248912334 1619429.6693611145 86.9400024414
0.4282685816 1619429.5780067444 86.9160003662
0.3999019861 1619429.4824905396 86.9039993286
0.3967472911 1619429.4046764374 86.9260025024
0.3971356153 1619429.3207435608 86.9300003052
0.3657799661 1619429.2326469421 86.9339981079
0.3652406931 1619429.1483402252 86.9469985962
0.3626399636 1619429.0718269348 86.9449996948
0.3346469998 1619428.9753837585 86.9420013428
0.2656410336 1619428.5605583191 87.5729980469
0.2516950667 1619428.2606258392 86.8690032959
0.2405008227 1619428.2054462433 86.9680023193
0.2343570888 1619428.1350536346 86.9940032959
0.2059904933 1619428.0395374298 86.9970016479
0.2093678564 1619427.9481830597 86.9710006714
0.1800736785 1619427.8522930145 86.9729995728
0.1774729341 1619427.7757797241 86.9840011597
0.1481787711 1619427.6798896790 86.9720001221
0.2614153326 1619429.1571884155 92.1380004883
0.2444656640 1619428.9476833344 91.7020034790
0.1437392235 1619427.4420032501 87.0270004272
0.1204231530 1619427.3312721252 86.9420013428
0.0890675113 1619427.2431755066 86.9520034790
0.0885282382 1619427.1588687897 86.9710006714
0.0661397427 1619427.0485115051 86.9020004272
0.0635390133 1619426.9719982147 86.9300003052
0.0603843182 1619426.8941841125 86.9410018921
-0.0206642300 1619426.9294567108 91.9980010986
-0.0499584004 1619426.8335666656 91.9869995117
-0.0521855094 1619426.7561264038 91.9950027466
-0.0547862500 1619426.6796131134 92.0019989014
-0.0840804204 1619426.5837230682 92.0000000000
-0.0836921111 1619426.4997901917 91.9700012207
-0.1120586991 1619426.4042739868 91.9580001831
-0.1152133867 1619426.3264598846 91.9820022583
-0.1178141311 1619426.2499465942 91.9860000610
0.8243055940 1619431.5228271484 88.5380020142
0.8246938586 1619431.4388942719 88.5230026245
0.7953997254 1619431.3430042267 88.5000000000
0.7957880497 1619431.2590694427 88.4869995117
0.7724719644 1619431.1483383179 88.4300003052
0.7758492827 1619431.0569858551 88.3759994507
0.7474827170 1619430.9614696503 88.3610000610
0.7469434142 1619430.8771610260 88.3509979248
0.7245549560 1619430.7668037415 88.2760009766
0.7249432206 1619430.6828708649 88.2630004883
0.7273930311 1619430.5911426544 88.2470016479
0.6960373521 1619430.5030479431 88.2360000610
0.6727213264 1619430.3923168182 88.1529998779
0.6731095910 1619430.3083820343 88.1630020142
0.6764869690 1619430.2170276642 88.0970001221
0.6501818299 1619430.1137180328 88.0849990845
0.6505701542 1619430.0297851563 88.0790023804
0.6251925826 1619429.9268474579 88.0210037231
0.6276423931 1619429.8351192474 87.9670028687
0.5992757678 1619429.7396030426 87.9690017700
0.5759596825 1619429.6288719177 87.9010009766
0.5733589530 1619429.5523586273 87.9020004272
0.5797253847 1619429.4535846710 87.8430023193
0.5620137453 1619429.3289394379 87.7190017700
0.5314200521 1619429.1559829712 87.4530029297
0.5338698626 1619429.0642547607 87.4110031128
0.5025141835 1619428.9761600494 87.4300003052
0.4999134541 1619428.8996467590 87.4550018311
0.4967587590 1619428.8218326569 87.4720001221
0.4654031396 1619428.7337379456 87.5000000000
0.4628023803 1619428.6572246552 87.5100021362
0.4458527267 1619428.4477176666 87.0810012817
0.4462410212 1619428.3637847900 87.0910034180
0.4139578044 1619428.2753162384 87.1090011597
0.4117307067 1619428.1978740692 87.1240005493
0.3880409896 1619428.0880718231 87.0690002441
0.3914183378 1619427.9967174530 87.0250015259
0.3690298498 1619427.8863601685 86.9720001221
0.3684905767 1619427.8020534515 86.9589996338
0.3371349275 1619427.7139568329 86.9619979858
0.3349078298 1619427.6365165710 86.9860000610
0.3343685567 1619427.5522098541 86.9759979248
0.2774844170 1619427.1929359436 86.9720001221
0.2489521801 1619427.0121860504 86.9469985962
0.2463514358 1619426.9356727600 86.9720001221
0.2321681380 1619426.8879146576 87.1110000610
0.8658796549 1619430.9164447784 88.3180007935
0.8692570329 1619430.8250904083 88.3089981079
0.8379013538 1619430.7369956970 88.2910003662
0.8373621106 1619430.6526870728 88.2860031128
0.8149735928 1619430.5423297882 88.2170028687
0.8153619170 1619430.4583969116 88.2040023804
0.7860677242 1619430.3625068665 88.1940002441
0.7924341559 1619430.2637329102 88.1200027466
0.7631399632 1619430.1678428650 88.1070022583
0.7665173411 1619430.0764884949 88.0800018311
0.7381507158 1619429.9809722900 88.0449981689
0.7376114726 1619429.8966655731 88.0350036621
0.7182120085 1619429.7788867950 87.9520034790
0.7186003327 1619429.6949539185 87.9410018921
0.6893061399 1619429.5990638733 87.9400024414
0.6926835179 1619429.5077095032 87.8880004883
0.6693674326 1619429.3969783783 87.8199996948
0.6697557569 1619429.3130455017 87.8190002441
0.6443781853 1619429.2101078033 87.7720031738
0.6468279958 1619429.1183795929 87.7330017090
0.6214504242 1619429.0154438019 87.6809997559
0.6278168559 1619428.9166679382 87.6230010986
0.6041271091 1619428.8068656921 87.5520019531
0.5761341453 1619428.7104206085 87.5510025024
0.5755949020 1619428.6261138916 87.5550003052
0.5729941726 1619428.5496006012 87.5410003662
0.5556708574 1619428.3410224915 87.1279983521
0.5246888399 1619428.2519989014 87.1630020142
0.5190990567 1619428.1829071045 87.1940002441
0.5159443617 1619428.1050930023 87.2239990234
0.4845887125 1619428.0169982910 87.2360000610
0.4849770367 1619427.9330635071 87.2450027466
0.4818370342 1619427.7722434998 86.9810028076
0.4538440704 1619427.6758003235 86.9690017700
0.4562938511 1619427.5840721130 86.9570007324
0.4249382019 1619427.4959774017 86.9580001831
0.4253264964 1619427.4120426178 86.9560012817
0.3990213871 1619427.3087329865 86.9380035400
0.3964206278 1619427.2322196960 86.9410018921
0.3941935301 1619427.1547794342 86.9609985352
0.3619103134 1619427.0663089752 86.9710006714
0.3622986078 1619426.9823760986 86.9810028076
0.3567088544 1619426.9132843018 87.0279998779
0.3419715762 1619426.8642253876 87.1559982300
0.5742307901 1619427.9603900909 87.3199996948
0.5776081681 1619427.8690357208 87.3079986572
0.5779964328 1619427.7851028442 87.3030014038
0.5487022996 1619427.6892127991 87.2639999390
0.5293028355 1619427.5714359283 87.1910018921
0.5296911597 1619427.4875011444 87.1660003662
0.5003969669 1619427.3916110992 87.1660003662
0.5067633390 1619427.2928371429 87.1149978638
0.4830736518 1619427.1830329895 87.0569992065
0.4808465540 1619427.1055927277 87.0579986572
-0.6128491163 1619456.0846939087 87.0130004883
-0.6305607557 1619455.9600486755 87.0360031128
-0.6361505389 1619455.8909568787 87.0719985962
-0.6443557143 1619455.8283576965 87.0830001831
-0.6534885168 1619455.7653846741 87.1050033569
-0.6590783000 1619455.6962928772 87.1230010986
-0.6385285854 1619455.6452751160 87.1279983521
-0.6467338204 1619455.5826759338 87.1520004272
-0.6523236036 1619455.5135841370 87.2050018311
-0.6614563465 1619455.4506111145 87.2190017700
-0.6670461297 1619455.3815193176 87.2389984131
-0.6752513647 1619455.3189201355 87.2610015869
-0.6834565401 1619455.2563209534 87.2750015259
-0.6899738908 1619455.1868553162 87.2910003662
-0.6724132895 1619455.1432571411 87.2910003662
-0.6776294112 1619455.0732383728 87.3160018921
-0.6862082481 1619455.0115661621 87.3509979248
-0.6914244294 1619454.9415473938 87.3899993896
-0.6979417801 1619454.8720817566 87.4130020142
-0.7091360092 1619454.8169021606 87.4140014648
-0.7173412442 1619454.7543029785 87.4160003662
-0.6967915297 1619454.7032852173 87.4199981689
-0.7023813128 1619454.6341934204 87.4960021973
-0.7085250616 1619454.5638008118 87.5110015869
-0.7171038985 1619454.5021286011 87.5360031128
-0.7223200202 1619454.4321098328 87.5660018921
-0.7335143089 1619454.3769302368 87.5729980469
-0.7430207133 1619454.3148841858 87.5800018311
-0.7194819450 1619454.2564468384 87.6110000610
-0.7276871800 1619454.1938476563 87.6419982910
-0.7332769632 1619454.1247558594 87.6520004272
-0.7414821386 1619454.0621566772 87.6760025024
-0.7509885430 1619454.0001106262 87.6800003052
-0.7591937780 1619453.9375114441 87.7020034790
-0.7673989534 1619453.8749122620 87.7490005493
-0.7442338467 1619453.8174018860 87.7770004272
-0.7524390221 1619453.7548027039 87.7770004272
-0.7615718246 1619453.6918296814 87.8059997559
-0.7671616077 1619453.6227378845 87.8339996338
-0.7753668427 1619453.5601387024 87.8450012207
-0.7835720181 1619453.4975395203 87.8509979248
-0.7930784225 1619453.4354934692 87.8720016479
-0.7725287080 1619453.3844757080 87.9020004272
-0.7781184912 1619453.3153839111 87.9440002441
-0.7863237262 1619453.2527847290 87.9720001221
-0.7945289016 1619453.1901855469 87.9810028076
-0.8040353060 1619453.1281394958 87.9860000610
-0.8122405410 1619453.0655403137 88.0139999390
-0.7887017727 1619453.0071029663 88.0429992676
-0.7972806096 1619452.9454307556 88.0550003052
-0.8054858446 1619452.8828315735 88.0690002441
-0.8146185875 1619452.8198585510 88.0810012817
-0.8231974244 1619452.7581863403 88.0970001221
-0.8284136057 1619452.6881675720 88.1470031738
-0.8366187811 1619452.6255683899 88.1689987183
-0.8164427280 1619452.5754776001 88.1800003052
-0.8255755305 1619452.5125045776 88.1949996948
-0.8337807059 1619452.4499053955 88.2080001831
-0.8423595428 1619452.3882369995 88.2300033569
-0.8505647779 1619452.3256378174 88.2369995117
-0.8596975207 1619452.2626647949 88.2590026855
-0.8365324140 1619452.2051544189 88.2939987183
-0.8447375894 1619452.1425552368 88.3330001831
-0.8529428244 1619452.0799560547 88.3610000610
-0.8615216613 1619452.0182838440 88.3580017090
-0.8706544042 1619451.9553108215 88.3870010376
-0.8762442470 1619451.8862190247 88.4160003662
-0.8586835861 1619451.8426208496 88.4260025024
-0.8638997078 1619451.7726020813 88.4410018921
-0.8750939965 1619451.7174224854 88.4520034790
-0.8846004009 1619451.6553764343 88.4530029297
-0.8868274689 1619451.5779380798 88.5380020142
-0.8954063058 1619451.5162658691 88.5680007935
-0.9036115408 1619451.4536666870 88.6190032959
-0.8830618262 1619451.4026489258 88.6470031738
-0.8925682306 1619451.3406028748 88.6500015259
-0.9007734656 1619451.2780036926 88.6559982300
-0.9089786410 1619451.2154045105 88.6669998169
-0.9171838164 1619451.1528053284 88.6600036621
-0.9266902804 1619451.0907592773 88.6910018921
-0.9061405659 1619451.0397453308 88.6949996948
-0.9143457413 1619450.9771461487 88.7210006714
-0.9199355245 1619450.9080505371 88.7710037231
-0.9281407595 1619450.8454513550 88.7910003662
-0.9376471639 1619450.7834091187 88.8050003052
-0.9458523393 1619450.7208061218 88.8280029297
-0.9253026843 1619450.6697921753 88.8470001221
-0.9335078597 1619450.6071929932 88.8600006104
-0.9420866966 1619450.5455207825 88.8880004883
-0.9512194991 1619450.4825477600 88.9240036011
-0.9594246745 1619450.4199485779 88.9189987183
-0.9392486215 1619450.3698577881 88.9540023804
-0.9474537969 1619450.3072586060 88.9830017090
-0.9556590319 1619450.2446594238 88.9940032959
-0.9651654363 1619450.1826133728 89.0019989014
-0.9733706117 1619450.1200141907 89.0380020142
-0.9785867929 1619450.0499954224 89.0690002441
-0.9613997936 1619450.0073280334 89.0820007324
-0.9666159153 1619449.9373054504 89.1050033569
-0.9787377715 1619449.8817558289 89.1240005493
-0.9873166084 1619449.8200836182 89.1460037231
-0.9925327301 1619449.7500610352 89.1539993286
-1.0037269592 1619449.6948852539 89.1660003662
-0.9831773043 1619449.6438674927 89.1650009155
-1.0068670511 1619449.5340652466 89.0270004272
-1.0150722265 1619449.4714660645 88.9990005493
-1.0292555094 1619449.4237060547 88.9029998779
-1.0116947889 1619449.3801116943 88.8040008545
-1.0208276510 1619449.3171386719 88.7730026245
-1.0350109339 1619449.2693786621 88.6699981689
-1.0435897112 1619449.2077064514 88.6070022583
-1.4512093067 1619447.2916412354 80.1250000000
-1.4594144821 1619447.2290420532 80.1520004272
-1.4676196575 1619447.1664428711 80.1910018921
-1.4741370678 1619447.0969772339 80.1920013428
-1.4823422432 1619447.0343780518 80.1969985962
-1.5453701019 1619446.6047096252 78.7200012207
-1.5479708910 1619446.5281982422 78.8150024414
-1.5561760664 1619446.4655990601 78.8880004883
-1.6997925043 1619445.6498603821 76.5270004272
-1.6792428493 1619445.5988464355 76.6060028076
-1.7907986641 1619445.0407447815 75.0690002441
-1.7672599554 1619444.9823074341 75.1549987793
-1.7728496790 1619444.9132156372 75.2249984741
-1.7789934874 1619444.8428230286 75.3030014038
-1.7875722647 1619444.7811508179 75.3710021973
-1.7897994518 1619444.7037086487 75.4459991455
-1.8797433376 1619444.4238357544 73.6320037842
-1.8849595785 1619444.3538131714 73.6930007935
-1.8617944717 1619444.2963066101 73.7710037231
-1.8670105934 1619444.2262840271 73.8580017090
-1.8726003170 1619444.1571922302 73.9270019531
-1.8787441254 1619444.0867996216 73.9940032959
-1.8843338490 1619444.0177078247 74.0839996338
-1.8895500898 1619443.9476852417 74.1650009155
-1.8951398134 1619443.8785934448 74.1699981689
-1.9505881071 1619443.8476333618 72.4860000610
-1.9617824554 1619443.7924575806 72.2490005493
-1.9669985771 1619443.7224349976 72.2109985352
-1.9735158682 1619443.6529693604 72.2060012817
-1.9787321091 1619443.5829505920 72.1900024414
-1.9873108864 1619443.5212783813 72.1740036011
-1.9925271273 1619443.4512596130 72.1600036621
-1.9990444183 1619443.3817939758 72.1409988403
-2.0072495937 1619443.3191947937 72.1470031738
-2.0098502636 1619443.2426795959 72.1279983521
-2.0180556774 1619443.1800804138 72.0920028687
-1.9948904514 1619443.1225700378 72.1520004272
-2.0010342598 1619443.0521774292 72.1549987793
-2.0066239834 1619442.9830856323 72.1520004272
-0.4281978905 1619456.2097434998 87.3330001831
-0.4393921494 1619456.1545639038 87.2399978638
-0.4535754323 1619456.1068038940 87.1220016479
-0.4419928789 1619456.0780487061 86.9420013428
-0.4501980841 1619456.0154495239 86.9380035400
-0.4597044885 1619455.9534072876 86.9339981079
-0.4679096937 1619455.8908081055 86.9300003052
-0.4791039526 1619455.8356285095 86.9410018921
-0.4818556607 1619455.5908737183 86.9440002441
-0.4900608361 1619455.5282745361 86.9520034790
-0.4982660413 1619455.4656753540 86.9469985962
-0.5077724457 1619455.4036293030 86.9479980469
-0.4872227609 1619455.3526115417 86.9390029907
-0.4954279661 1619455.2900123596 86.9300003052
-0.5066221952 1619455.2348365784 86.9199981689
-0.5152010322 1619455.1731643677 86.9189987183
-0.5243338346 1619455.1101913452 86.9250030518
-0.5325390100 1619455.0475921631 86.9199981689
-0.5123629570 1619454.9975013733 86.9189987183
-0.5205681920 1619454.9349021912 86.9140014648
-0.4141902924 1619454.2532844543 91.9400024414
-0.5287733674 1619454.8723030090 86.9039993286
-0.4233230650 1619454.1903114319 91.9290008545
-0.5379061699 1619454.8093299866 86.9100036621
-0.4143412411 1619454.0850448608 91.9120025635
-0.5546901822 1619454.6850585938 86.9270019531
-0.5628954172 1619454.6224594116 86.9280014038
-0.5397302508 1619454.5649490356 86.9410018921
-0.4402580559 1619453.8978004456 91.9720001221
-0.5544528365 1619454.4328842163 87.5019989014
-0.5600572824 1619454.4468002319 86.9300003052
-0.5686361194 1619454.3851280212 86.9280014038
-0.5768413544 1619454.3225288391 86.9169998169
-0.5859740973 1619454.2595558167 86.9240036011
-0.5945529342 1619454.1978836060 86.9270019531
-0.5740032792 1619454.1468658447 86.9199981689
-0.5822084546 1619454.0842666626 86.9169998169
-0.5907872915 1619454.0225944519 86.9160003662
-0.5999200940 1619453.9596214294 86.9110031128
-0.4793589115 1619453.3257598877 91.9010009766
-0.6051362157 1619453.8896026611 87.0080032349
-0.6163304448 1619453.8344230652 86.9130020142
-0.5961543918 1619453.7843360901 86.9140014648
-0.6043596268 1619453.7217330933 86.9059982300
-0.6134923697 1619453.6587600708 86.9029998779
-0.5043481588 1619453.1388931274 91.1090011597
-0.6190821528 1619453.5896682739 86.9860000610
-0.5134809017 1619453.0759201050 91.0910034180
-0.6302764416 1619453.5344924927 86.9250030518
-0.6384816170 1619453.4718933105 86.9160003662
-0.6183055639 1619453.4218025208 86.9130020142
-0.6274383664 1619453.3588294983 86.9029998779
-0.6356435418 1619453.2962303162 86.9020004272
-0.5617862344 1619452.7783164978 90.5830001831
-0.6524275541 1619453.1719589233 86.9110031128
-0.5733541250 1619452.7240638733 90.5510025024
-0.6615603566 1619453.1089859009 86.9199981689
-0.5557934642 1619452.6804695129 90.4599990845
-0.6260507107 1619452.9378585815 88.0449981689
-0.6727545857 1619453.0538063049 86.8919982910
-0.5669876933 1619452.6252899170 90.3880004883
-0.6495894790 1619452.9962959290 86.9240036011
-0.5820986032 1619452.5771598816 90.3050003052
-0.6577947140 1619452.9336967468 86.9160003662
-0.5903037786 1619452.5145606995 90.2880020142
-0.5757321715 1619452.4783859253 90.1750030518
-0.5839374065 1619452.4157867432 90.1679992676
-0.5925162435 1619452.3541145325 90.1740036011
-0.6046380401 1619452.2985610962 90.1940002441
-0.6098542213 1619452.2285423279 90.2229995728
-0.6154440045 1619452.1594505310 90.3270034790
-0.6920676827 1619452.5156135559 86.8919982910
-0.5948942900 1619452.1084327698 90.4029998779
-0.7002728581 1619452.4530143738 86.8889999390
-0.6004840732 1619452.0393409729 90.4199981689
-0.7088516951 1619452.3913421631 86.9020004272
-0.6126059294 1619451.9837875366 90.4240036011
-0.7170569301 1619452.3287429810 86.8880004883
-0.6208111048 1619451.9211883545 90.4339981079
-0.7291787267 1619452.2731895447 86.8450012207
-0.6290163398 1619451.8585891724 90.4469985962
-0.6375951171 1619451.7969169617 90.4660034180
-0.6170454621 1619451.7458992004 90.4739990234
-0.7224240303 1619452.0904846191 86.8960037231
-0.6261782050 1619451.6829261780 90.4759979248
-0.6347570419 1619451.6212539673 90.4889984131
-0.7401356697 1619451.9658393860 86.8970031738
-0.6429622769 1619451.5586547852 90.5270004272
-0.7483408451 1619451.9032402039 86.9550018311
-0.6541565061 1619451.5034790039 90.5390014648
-0.7281647921 1619451.8531494141 86.9319992065
-0.7363699675 1619451.7905502319 86.9120025635
-0.7445752025 1619451.7279510498 86.9100036621
-0.7566969991 1619451.6723976135 86.9020004272
-0.7652758360 1619451.6107254028 86.9020004272
-0.7122055888 1619451.3960037231 88.6129989624
-0.7734810114 1619451.5481262207 86.9020004272
-0.6888177991 1619451.1693267822 90.3069992065
-0.7204107642 1619451.3334045410 88.5419998169
-0.6712571383 1619451.1257324219 90.2770004272
-0.7325326204 1619451.2778549194 88.4980010986
-0.7585211396 1619451.4280204773 86.9459991455
-0.6798359752 1619451.0640602112 90.2200012207
-0.7676538825 1619451.3650474548 86.9530029297
-0.6910302043 1619451.0088806152 90.1940002441
-0.7758591175 1619451.3024444580 86.9720001221
-0.7022244930 1619450.9537010193 90.1660003662
-0.7844379544 1619451.2407760620 86.9420013428
-0.7113572359 1619450.8907279968 90.1210021973
-0.7926431298 1619451.1781768799 86.9440002441
-0.6937965751 1619450.8471336365 90.0770034790
-0.8047649860 1619451.1226234436 86.8970031738
-0.7049908638 1619450.7919540405 90.0410003662
-0.7842152715 1619451.0716056824 86.8990020752
-0.7165587544 1619450.7377014160 89.9869995117
-0.7927941084 1619451.0099334717 86.8779983521
-0.7247639298 1619450.6751022339 89.9589996338
-0.7368857861 1619450.6195526123 89.9400024414
-0.7193251252 1619450.5759544373 89.9020004272
-0.7275303006 1619450.5133552551 89.8470001221
-0.7390981913 1619450.4591026306 89.8040008545
-0.7502924204 1619450.4039268494 89.7500000000
-0.8175606728 1619450.6538963318 86.8880004883
-0.7624142766 1619450.3483734131 89.7070007324
-0.8261395097 1619450.5922241211 86.8840026855
-0.7418645620 1619450.2973556519 89.6620025635
-0.8352723122 1619450.5292510986 86.8870010376
-0.7530587912 1619450.2421760559 89.6230010986
-0.8348839879 1619450.4453163147 87.1110000610
-0.7642530799 1619450.1870002747 89.5780029297
-0.8430891633 1619450.3827171326 87.1520004272
-0.7754473090 1619450.1318206787 89.5289993286
-0.8229131103 1619450.3326301575 87.1250000000
-0.7849537134 1619450.0697746277 89.4800033569
-0.8341073990 1619450.2774505615 87.0670013428
-0.7961480021 1619450.0145950317 89.4550018311
-0.8462291956 1619450.2218971252 86.9680023193
-0.7755982876 1619449.9635810852 89.4449996948
-0.8458408713 1619450.1379661560 87.2210006714
-0.7897815704 1619449.9158210754 89.3140029907
-0.8424635530 1619450.0466117859 87.6520004272
-0.7979868054 1619449.8532218933 89.2910003662
-0.8104822636 1619449.7985992432 89.2910003662
-0.8302699924 1619449.7647514343 88.9020004272
-0.8011267781 1619449.6924018860 89.2050018311
-0.8594132066 1619449.8371047974 87.2770004272
-0.8093320131 1619449.6298027039 89.1890029907
-0.8179108500 1619449.5681304932 89.1800003052
-0.8300326467 1619449.5125770569 89.1630020142
-0.8412268758 1619449.4574012756 89.1419982910
-0.8494321108 1619449.3948020935 89.1250000000
-0.8292560577 1619449.3447113037 89.1110000610
-0.8404502869 1619449.2895317078 89.0970001221
-0.8495830894 1619449.2265586853 89.0830001831
-0.8577882648 1619449.1639595032 89.0690002441
-0.8663671017 1619449.1022872925 89.0520019531
-0.8488064408 1619449.0586929321 89.0360031128
-0.8570116758 1619448.9960937500 89.0139999390
-0.8691334724 1619448.9405403137 89.0019989014
-0.8773387074 1619448.8779411316 88.9860000610
-0.8859175444 1619448.8162689209 88.9720001221
-0.8971117735 1619448.7610931396 88.9580001831
-0.8765620589 1619448.7100753784 88.9300003052
-0.8886839151 1619448.6545219421 88.8840026855
-0.8972627521 1619448.5928497314 88.8479995728
-0.9054679275 1619448.5302505493 88.8720016479
-0.9166621566 1619448.4750709534 88.8550033569
-0.9257949591 1619448.4120979309 88.8470001221
-0.9086079597 1619448.3694305420 88.7590026855
-0.9198021889 1619448.3142509460 88.6679992676
-0.9250183105 1619448.2442321777 88.7500000000
-0.9362125993 1619448.1890525818 88.7519989014
-0.9743229747 1619448.2836647034 87.2490005493
-0.9483343959 1619448.1335029602 88.6549987793
-0.9864447713 1619448.2281150818 87.1890029907
-0.9251692891 1619448.0759925842 88.7399978638
-0.9976390004 1619448.1729354858 87.1250000000
-1.0327603817 1619448.2601280212 85.6740036011
-0.9363635778 1619448.0208129883 88.6330032349
-1.0790759325 1619448.2921409607 84.2259979248
-1.1168125868 1619448.3858261108 82.7170028687
-0.9475578070 1619447.9656333923 88.5989990234
-1.0902701616 1619448.2369613647 84.1800003052
-0.9587520361 1619447.9104537964 88.4980010986
-1.0964138508 1619448.1665687561 84.2220001221
-0.9708738923 1619447.8549041748 88.4160003662
-1.0762377977 1619448.1164779663 84.2259979248
-0.9794527292 1619447.7932319641 88.3349990845
-1.0844429731 1619448.0538787842 84.2220001221
-0.9618920684 1619447.7496337891 88.2740020752
-1.0926481485 1619447.9912796021 84.2440032959
-0.9730862975 1619447.6944580078 88.1529998779
-1.0982379913 1619447.9221878052 84.2649993896
-0.9842805862 1619447.6392784119 88.1250000000
-1.1073707342 1619447.8592147827 84.2710037231
-1.1540746689 1619447.9751625061 82.3450012207
-0.9964023829 1619447.5837249756 88.0410003662
-1.1155760288 1619447.7966156006 84.3089981079
-1.1596643925 1619447.9060707092 82.4560012817
-1.1241548061 1619447.7349433899 84.2210006714
-1.1648805141 1619447.8360519409 82.5540008545
-1.1704703569 1619447.7669601440 82.6660003662
-1.1353490353 1619447.6797676086 83.3450012207
-1.1504598856 1619447.6316337585 82.9960021973
-1.1586651802 1619447.5690345764 82.9720001221
-1.1728484631 1619447.5212783813 82.7630004883
-1.1870317459 1619447.4735183716 82.4309997559
-1.2021425962 1619447.4253883362 82.1969985962
-1.2193149328 1619447.3850479126 81.7900009155
-1.2334982157 1619447.3372917175 81.4720001221
-1.2476814985 1619447.2895355225 81.1269989014
-1.2624187469 1619447.2404747009 80.9140014648
-1.2795910835 1619447.2001380920 80.4860000610
-1.2937743664 1619447.1523780823 80.1380004883
-1.3019796610 1619447.0897789001 80.1129989624
-1.3114860058 1619447.0277328491 80.0260009766
-1.2909363508 1619446.9767189026 79.9589996338
-1.3021305799 1619446.9215393066 79.8880004883
-1.3107093573 1619446.8598670959 79.8050003052
-1.3189146519 1619446.7972679138 79.7770004272
-1.3280473948 1619446.7342948914 79.6809997559
-1.3362525702 1619446.6716957092 79.6090011597
-1.3448314667 1619446.6100234985 79.5220031738
-1.3530366421 1619446.5474243164 79.4899978638
-1.3621693850 1619446.4844512939 79.4000015259
-1.3737373352 1619446.4301986694 79.3050003052
-1.3819425106 1619446.3675994873 79.2850036621
-1.3901476860 1619446.3050003052 79.1940002441
-1.3695980310 1619446.2539863586 79.1269989014
-1.3791043758 1619446.1919403076 79.0660018921
-1.3873095512 1619446.1293411255 78.9860000610
-1.3955148458 1619446.0667419434 78.8960037231
-1.4040936232 1619446.0050697327 78.8750000000
-1.4132264853 1619445.9420967102 78.7720031738
-1.4214316607 1619445.8794975281 78.6839981079
-1.4300104380 1619445.8178253174 78.6650009155
-1.4382156134 1619445.7552261353 78.5550003052
-1.4473484755 1619445.6922531128 78.4869995117
-1.4559272528 1619445.6305809021 78.4020004272
-1.4641325474 1619445.5679817200 78.3750000000
-1.4723377228 1619445.5053825378 78.2929992676
-1.4818440676 1619445.4433364868 78.1940002441
-1.4612944126 1619445.3923187256 78.1660003662
-1.4694995880 1619445.3297195435 78.0690002441
-1.4777047634 1619445.2671203613 78.0410003662
-1.4862836599 1619445.2054481506 77.9150009155
-1.4954164028 1619445.1424751282 77.8880004883
-1.5036215782 1619445.0798759460 77.8040008545
-1.5122004747 1619445.0182075500 77.7080001831
-1.5204056501 1619444.9556083679 77.6279983521
-1.5269230604 1619444.8861389160 77.6060028076
-1.5351282358 1619444.8235397339 77.5169982910
-1.5433334112 1619444.7609405518 77.4430007935
-1.5515385866 1619444.6983413696 77.3720016479
-1.5610450506 1619444.6362991333 77.2610015869
-1.5692502260 1619444.5736961365 77.2360000610
-1.5774554014 1619444.5110969543 77.1529998779
-1.5860342979 1619444.4494285583 77.0550003052
-1.5921779871 1619444.3790321350 77.0270004272
-1.6007568836 1619444.3173599243 76.9300003052
-1.6526768208 1619444.3632888794 75.1770019531
-1.5802071095 1619444.2663459778 76.8330001831
-1.6608821154 1619444.3006896973 75.1210021973
-1.5884124041 1619444.2037467957 76.8079986572
-1.6377170086 1619444.2431793213 75.1620025635
-1.5966175795 1619444.1411476135 76.7180023193
-1.6468497515 1619444.1802062988 75.1600036621
-1.6031348705 1619444.0716819763 76.6480026245
-1.6524394751 1619444.1111145020 75.1660003662
-1.6113401651 1619444.0090789795 76.5589981079
-1.6199189425 1619443.9474105835 76.4540023804
-1.6281241179 1619443.8848114014 76.4300003052
-1.6372569799 1619443.8218383789 76.3590011597
-1.6428467035 1619443.7527427673 76.2659988403
-1.6510518789 1619443.6901435852 76.2030029297
-1.6592571735 1619443.6275444031 76.1210021973
-1.6687635183 1619443.5655021667 76.0439987183
-1.7494384050 1619443.5998458862 73.8330001831
-1.6881630421 1619443.4477233887 75.3730010986
-1.7344785929 1619443.4797363281 73.8909988403
-1.6907637119 1619443.3712081909 75.7919998169
-1.7406222820 1619443.4093437195 73.9020004272
-1.6998964548 1619443.3082351685 75.7119979858
-1.7462120056 1619443.3402519226 73.9059982300
-1.7054862976 1619443.2391433716 75.6520004272
-1.7514282465 1619443.2702293396 73.9420013428
-1.7136914730 1619443.1765441895 75.5210037231
-1.7600070238 1619443.2085571289 73.9440002441
-1.7248857021 1619443.1213645935 75.2099990845
-1.7314031124 1619443.0518989563 75.2480010986
-1.7366192341 1619442.9818801880 75.2659988403
-1.7448245287 1619442.9192810059 75.2659988403
-1.7916792631 1619442.8669891357 74.0569992065
-1.7972691059 1619442.7978935242 74.0490036011
-1.8054742813 1619442.7352943420 74.0490036011
-1.8106904030 1619442.6652755737 74.0370025635
-1.8231859207 1619442.6106491089 73.5790023804
-1.8284020424 1619442.5406303406 73.5999984741
-1.8339918852 1619442.4715385437 73.7070007324
-1.8104530573 1619442.4131011963 73.7330017090
-1.8160429001 1619442.3440093994 73.8069992065
-1.8595349789 1619442.2833671570 72.8450012207
-1.8651248217 1619442.2142753601 72.9260025024
-1.8703409433 1619442.1442565918 72.9970016479
-1.8768583536 1619442.0747871399 73.2789993286
-1.8477151394 1619442.0024375916 74.1230010986
-1.9227855206 1619442.0228691101 71.4440002441
-1.8589093685 1619441.9472579956 73.2080001831
-1.9309908152 1619441.9602699280 71.4329986572
-1.8641254902 1619441.8772392273 73.3190002441
-1.9375081062 1619441.8908042908 71.4430007935
-1.8697153330 1619441.8081474304 73.4130020142
-1.8788480759 1619441.7451744080 73.5070037842
-1.8844379187 1619441.6760826111 73.5970001221
-1.8896540403 1619441.6060600281 73.6669998169
-1.8952437639 1619441.5369682312 73.6829986572
-1.9013875723 1619441.4665756226 73.8000030518
-1.8782224655 1619441.4090652466 73.8649978638
-1.8834385872 1619441.3390464783 73.9400024414
-1.8920173645 1619441.2773742676 74.0120010376
-1.9907922745 1619441.2710075378 71.4410018921
-1.9960083961 1619441.2009887695 71.4420013428
-1.9728432894 1619441.1434783936 71.4440002441
-1.9810484648 1619441.0808792114 71.4420013428
-1.9875658751 1619441.0114135742 71.4420013428
-1.9927819967 1619440.9413909912 71.4390029907
-1.9636387825 1619440.8690414429 72.9039993286
-1.9983718395 1619440.8722991943 71.4160003662
-2.0035879612 1619440.8022804260 71.4300003052
-2.0889179707 1619439.8418426514 71.3040008545
-2.0791742802 1619439.6517105103 71.4160003662
-2.1017136574 1619439.3731155396 71.9110031128
-0.1183157265 1619456.6127090454 91.9960021973
-0.1295099854 1619456.5575294495 92.0029983521
-0.1093339100 1619456.5074386597 92.0009994507
-0.1184666902 1619456.4444656372 92.0009994507
-0.1266718954 1619456.3818664551 92.0000000000
-0.1378661394 1619456.3266868591 92.0100021362
-0.1464449763 1619456.2650184631 92.0070037842
-0.1555777639 1619456.2020454407 92.0110015869
-0.1350280643 1619456.1510276794 92.0100021362
-0.1436068863 1619456.0893554688 92.0139999390
-0.1548011452 1619456.0341758728 92.0220031738
-0.1630063355 1619455.9715766907 92.0270004272
-0.1721391231 1619455.9086036682 92.0270004272
-0.1545784771 1619455.8650093079 92.0299987793
-0.1631573141 1619455.8033370972 92.0380020142
-0.1713625044 1619455.7407379150 92.0410003662
-0.1795677096 1619455.6781387329 92.0449981689
-0.1916895360 1619455.6225852966 92.0400009155
-0.1715134680 1619455.5724945068 92.0439987183
-0.1827077270 1619455.5173187256 92.0110015869
-0.3230566382 1619456.1173324585 87.0380020142
-0.3054960072 1619456.0737380981 86.9400024414
-0.2086245418 1619455.3300743103 92.0510025024
-0.3140748441 1619456.0120658875 86.9319992065
-0.2168297470 1619455.2674751282 92.0550003052
-0.1962800473 1619455.2164573669 92.0530014038
-0.3344018459 1619455.8939132690 86.8889999390
-0.2078479230 1619455.1622047424 92.0540008545
-0.3399916589 1619455.8248214722 86.9300003052
-0.2160531133 1619455.0996055603 92.0439987183
-0.2281749547 1619455.0440559387 92.0360031128
-0.3573296368 1619455.6992492676 86.9580001831
-0.3453587592 1619455.5865592957 86.9440002441
-0.3535639644 1619455.5239601135 86.9580001831
-0.3621428013 1619455.4622917175 86.9680023193
-0.3682865202 1619455.3918952942 86.9869995117
-0.3794807792 1619455.3367195129 86.9410018921
-0.3589310944 1619455.2857017517 86.9300003052
-0.3675099313 1619455.2240295410 86.9160003662
-0.3787041605 1619455.1688499451 86.9150009155
-0.3848479092 1619455.0984573364 86.9160003662
-0.3964157701 1619455.0442047119 86.9160003662
-0.4016319513 1619454.9741859436 86.9160003662
-0.2664991617 1619454.3041496277 91.9530029297
-0.4098371267 1619454.9115867615 86.9660034180
-0.2776934206 1619454.2489700317 91.9530029297
-0.2871998250 1619454.1869239807 91.9420013428
-0.2954050303 1619454.1243247986 91.9440002441
-0.2778443694 1619454.0807304382 91.9410018921
-0.2860495746 1619454.0181312561 91.9479980469
-0.2946284115 1619453.9564590454 91.9520034790
-0.4067617059 1619454.4837493896 87.5350036621
-0.3037611842 1619453.8934860229 91.9580001831
-0.3149554431 1619453.8383064270 91.9420013428
-0.4460852146 1619454.0808830261 86.9020004272
-0.4542904198 1619454.0182838440 86.9100036621
-0.3337292373 1619453.3844223022 91.9550018311
-0.4634231925 1619453.9553108215 86.9280014038
-0.3428620100 1619453.3214492798 91.9580001831
-0.4716283977 1619453.8927116394 86.9160003662
-0.3746059537 1619453.3172874451 91.3980026245
-0.4772181809 1619453.8236160278 86.9690017700
-0.3600343466 1619453.2811126709 91.3000030518
-0.4884124100 1619453.7684402466 86.9300003052
-0.3712286055 1619453.2259330750 91.2669982910
-0.4975452125 1619453.7054672241 86.9000015259
-0.3798074424 1619453.1642608643 91.2910003662
-0.4803581834 1619453.6627960205 86.8610000610
-0.3919292688 1619453.1087074280 91.1660003662
-0.3799730837 1619453.0790252686 91.0309982300
-0.3915409744 1619453.0247764587 90.9970016479
-0.3997461498 1619452.9621772766 91.0000000000
-0.4049623311 1619452.8921546936 91.0970001221
-0.4114796817 1619452.8226890564 91.1330032349
-0.4196848869 1619452.7600898743 91.1800003052
-0.3991352022 1619452.7090721130 91.1940002441
-0.4107030630 1619452.6548233032 91.1940002441
-0.4189082682 1619452.5922241211 91.1949996948
-0.4280410409 1619452.5292510986 91.2060012817
-0.4392352998 1619452.4740715027 91.1910018921
-0.4160701931 1619452.4165611267 91.2300033569
-0.4709792435 1619452.4699096680 90.1080017090
-0.4534186125 1619452.4263114929 90.0770034790
-0.4415986836 1619452.1453857422 91.0670013428
-0.5761204958 1619452.5623168945 86.8880004883
-0.4527929425 1619452.0902061462 91.0260009766
-0.5529553890 1619452.5048065186 86.9540023804
-0.4639872015 1619452.0350265503 90.9739990234
-0.5611605644 1619452.4422073364 86.9619979858
-0.4761090279 1619451.9794731140 90.9300003052
-0.5693657994 1619452.3796081543 86.9430007935
-0.4873032570 1619451.9242973328 90.8909988403
-0.5779446363 1619452.3179359436 86.9380035400
-0.4697426260 1619451.8806991577 90.8410034180
-0.5224245787 1619452.0114860535 89.4000015259
-0.5900664330 1619452.2623863220 86.9000015259
-0.4783214629 1619451.8190269470 90.8000030518
-0.5306297541 1619451.9488868713 89.4020004272
-0.5982716680 1619452.1997871399 86.9020004272
-0.4895156920 1619451.7638473511 90.7890014648
-0.5160581470 1619451.9127120972 89.2779998779
-0.5777219534 1619452.1487693787 86.9130020142
-0.4986484945 1619451.7008743286 90.7570037842
-0.5272524357 1619451.8575325012 89.2630004883
-0.5098427534 1619451.6456985474 90.7089996338
-0.4922820926 1619451.6021003723 90.6660003662
-0.5034763217 1619451.5469207764 90.6230010986
-0.5150442123 1619451.4926719666 90.5800018311
-0.5241770148 1619451.4296989441 90.5410003662
-0.5353712440 1619451.3745193481 90.5009994507
-0.5178105831 1619451.3309249878 90.4729995728
-0.5290048122 1619451.2757453918 90.3880004883
-0.5401991010 1619451.2205657959 90.3560028076
-0.5727196336 1619451.3842697144 88.6080017090
-0.5523208976 1619451.1650123596 90.3089981079
-0.5869029760 1619451.3365135193 88.4840011597
-0.5608997345 1619451.1033439636 90.2720031738
-0.5964093804 1619451.2744674683 88.4580001831
-0.5433390737 1619451.0597457886 90.2340011597
-0.5545333624 1619451.0045661926 90.1940002441
-0.5657275915 1619450.9493904114 90.1539993286
-0.5748603940 1619450.8864173889 90.1129989624
-0.5864282250 1619450.8321647644 90.0550003052
-0.6682680845 1619451.1183090210 86.8919982910
-0.5688676238 1619450.7885665894 90.0130004883
-0.6738578677 1619451.0492172241 86.9580001831
-0.5770727992 1619450.7259674072 90.0080032349
-0.6499308348 1619450.9068450928 87.9059982300
-0.6850521564 1619450.9940376282 86.8740005493
-0.5882670283 1619450.6707916260 89.9580001831
-0.6618870497 1619450.9365310669 86.9580001831
-0.6003888845 1619450.6152381897 89.9169998169
-0.6730812788 1619450.8813514709 86.8750000000
-0.6089677215 1619450.5535659790 89.9169998169
-0.6822140217 1619450.8183784485 86.9179992676
-0.6904192567 1619450.7557792664 86.8889999390
-0.6987754107 1619450.5249366760 86.8610000610
-0.7125704288 1619450.3932456970 86.9160003662
-0.7151711583 1619450.3167343140 87.1279983521
-0.7302820086 1619450.2686004639 86.8980026245
-0.7384872437 1619450.2060012817 86.9879989624
-0.7209265828 1619450.1624069214 86.9000015259
-0.6506692767 1619449.9050140381 89.3440017700
-0.7265163660 1619450.0933151245 86.9530029297
-0.6618635058 1619449.8498382568 89.3320007324
-0.7347215414 1619450.0307159424 86.9440002441
-0.7412388921 1619449.9612503052 87.0410003662
-0.6851795912 1619449.7391052246 89.1230010986
-0.7464550734 1619449.8912277222 87.2080001831
-0.6933848262 1619449.6765060425 89.1959991455
-0.7019636631 1619449.6148338318 89.1819992065
-0.6814139485 1619449.5638198853 89.1800003052
-0.6935357451 1619449.5082664490 89.1660003662
-0.7514339089 1619449.5690345764 87.5210037231
-0.7570236921 1619449.4999427795 87.6100006104
-0.7652288675 1619449.4373435974 87.6279983521
-0.7420637608 1619449.3798332214 87.6979980469
-0.7511965632 1619449.3168601990 87.7610015869
-0.7216650248 1619449.1605758667 89.0000000000
-0.7328592539 1619449.1053962708 88.9960021973
-0.7410644889 1619449.0427970886 88.9879989624
-0.7501972318 1619448.9798240662 88.9840011597
-0.7326365709 1619448.9362297058 88.9850006104
-0.7412154078 1619448.8745574951 88.9059982300
-0.7524096966 1619448.8193778992 88.9169998169
-0.7606148720 1619448.7567787170 88.9290008545
-0.7701212764 1619448.6947326660 88.9280014038
-0.7783265114 1619448.6321334839 88.9160003662
-0.7577767968 1619448.5811157227 88.9039993286
-0.7689710259 1619448.5259399414 88.8919982910
-0.7775498629 1619448.4642677307 88.8779983521
-0.7896717191 1619448.4087142944 88.8700027466
-0.7978768945 1619448.3461151123 88.8560028076
-0.8060821295 1619448.2835159302 88.8359985352
-0.7859060764 1619448.2334251404 88.8190002441
-0.7971003056 1619448.1782493591 88.8050003052
-0.8062331080 1619448.1152763367 88.7910003662
-0.8144382834 1619448.0526771545 88.7860031128
-0.8230171204 1619447.9910049438 88.7799987793
-0.8342113495 1619447.9358253479 88.7770004272
-0.8136616349 1619447.8848075867 88.7770004272
-0.8227944374 1619447.8218345642 88.7710037231
-0.8343623281 1619447.7675857544 88.7600021362
-0.8425675035 1619447.7049865723 88.7369995117
-0.8507727385 1619447.6423835754 88.7190017700
-0.8628945351 1619447.5868339539 88.6979980469
-0.8427184820 1619447.5367431641 88.6829986572
-0.8684843183 1619447.5177421570 87.9440002441
-0.8796786070 1619447.4625625610 87.8769989014
-0.8908728361 1619447.4073829651 87.8040008545
-0.9000056386 1619447.3444099426 87.7360000610
-0.9115735292 1619447.2901611328 87.6480026245
-1.0509231091 1619447.5531387329 82.9530029297
-0.9227677584 1619447.2349815369 87.5550003052
-1.0651063919 1619447.5053825378 82.6770019531
-0.9052070975 1619447.1913833618 87.4860000610
-1.0802173615 1619447.4572486877 82.3570022583
-0.9164013267 1619447.1362075806 87.4020004272
-1.0944006443 1619447.4094924927 82.1110000610
-0.9255341291 1619447.0732345581 87.3170013428
-1.0798289776 1619447.3733177185 81.7060012817
-0.9045960903 1619446.9382820129 88.6559982300
-1.0970013142 1619447.3329772949 81.3700027466
-0.8926252723 1619446.8255920410 88.7389984131
-1.1203174591 1619447.2222480774 80.9440002441
-0.9008304477 1619446.7629928589 88.6940002441
-0.9129523039 1619446.7074432373 88.6559982300
-0.9245201945 1619446.6531906128 88.5559997559
-0.9357144237 1619446.5980110168 88.4830017090
-0.9151647091 1619446.5469970703 88.3960037231
-0.9263589978 1619446.4918174744 88.3170013428
-1.1917731762 1619446.8991508484 79.8079986572
-0.9384807944 1619446.4362640381 88.2360000610
-1.1999783516 1619446.8365516663 79.7360000610
-1.2091112137 1619446.7735786438 79.7160034180
-1.2176899910 1619446.7119064331 79.6510009766
-1.2434558868 1619446.6929016113 78.7490005493
-1.2516610622 1619446.6303024292 78.7220001221
-1.2436068058 1619446.5246620178 79.4039993286
-1.2230571508 1619446.4736442566 79.3759994507
-1.2342513800 1619446.4184684753 79.2919998169
-1.2424565554 1619446.3558654785 79.2200012207
-1.2510354519 1619446.2941970825 79.1380004883
-1.2571791410 1619446.2238006592 79.1220016479
-1.2683733702 1619446.1686248779 79.0270004272
-1.2769522667 1619446.1069526672 78.9540023804
-1.2851574421 1619446.0443534851 78.8830032349
-1.2942901850 1619445.9813804626 78.8050003052
-1.3208179474 1619446.0472373962 77.3130035400
-1.3028690815 1619445.9197082520 78.7369995117
-1.3290232420 1619445.9846382141 77.1559982300
-1.3110742569 1619445.8571090698 78.6660003662
-1.3192794323 1619445.7945098877 78.5810012817
-1.3284121752 1619445.7315368652 78.5520019531
-1.3082361221 1619445.6814460754 78.4580001831
-1.3164412975 1619445.6188468933 78.3919982910
-1.3246465921 1619445.5562477112 78.3310012817
-1.3332253695 1619445.4945755005 78.2620010376
-1.3423581123 1619445.4316024780 78.1900024414
-1.3505634069 1619445.3690032959 78.1060028076
-1.3561531305 1619445.2999114990 78.0790023804
-1.3673473597 1619445.2447319031 77.9810028076
-1.3764802217 1619445.1817588806 77.8769989014
-1.3820699453 1619445.1126670837 77.8499984741
-1.3932641745 1619445.0574874878 77.7639999390
-1.3984804153 1619444.9874687195 77.7050018311
-1.4079867601 1619444.9254226685 77.6220016479
-1.4161919355 1619444.8628234863 77.5530014038
-1.4243972301 1619444.8002243042 77.4860000610
-1.4329760075 1619444.7385520935 77.4130020142
-1.4421088696 1619444.6755790710 77.3420028687
-1.4215590954 1619444.6245651245 77.2669982910
-1.4301379919 1619444.5628929138 77.2030029297
-1.4353541136 1619444.4928703308 77.1340026855
-1.4435592890 1619444.4302711487 77.0640029907
-1.4530657530 1619444.3682289124 76.9580001831
-1.4612709284 1619444.3056297302 76.9440002441
-1.4694761038 1619444.2430305481 76.8470001221
-1.4750659466 1619444.1739349365 76.7740020752
-1.4841986895 1619444.1109619141 76.6930007935
-1.4924038649 1619444.0483627319 76.6190032959
-1.5009827614 1619443.9866905212 76.5540008545
-1.5091879368 1619443.9240913391 76.4810028076
-1.5157053471 1619443.8546257019 76.4049987793
-1.5239105225 1619443.7920265198 76.3339996338
-1.5321156979 1619443.7294273376 76.2610015869
-1.5377054214 1619443.6603355408 76.1800003052
-1.5468382835 1619443.5973625183 76.1119995117
-1.5550434589 1619443.5347633362 76.0419998169
-1.5636222363 1619443.4730911255 75.9580001831
-1.5718275309 1619443.4104919434 75.8759994507
-1.5779712200 1619443.3400993347 75.8479995728
-1.5865501165 1619443.2784271240 75.7600021362
-1.5917662382 1619443.2084083557 75.6800003052
-1.6003450155 1619443.1467361450 75.5719985962
-1.6094778776 1619443.0837631226 75.5449981689
-1.6146939993 1619443.0137443542 75.4530029297
-1.6232727766 1619442.9520721436 75.3750000000
-1.6314780712 1619442.8894729614 75.3079986572
-1.6379953623 1619442.8200073242 75.2249984741
-1.6462005377 1619442.7574081421 75.1480026245
-1.6544058323 1619442.6948089600 75.0820007324
-1.6599955559 1619442.6257133484 75.0130004883
-1.6691284180 1619442.5627403259 74.9339981079
-1.6743445396 1619442.4927215576 74.8330001831
-1.6541684866 1619442.4426345825 74.8050003052
-1.6593846083 1619442.3726119995 74.7080001831
-1.6679633856 1619442.3109397888 74.6350021362
-1.6741071939 1619442.2405471802 74.5660018921
-1.6823123693 1619442.1779479980 74.4710006714
-1.6908911467 1619442.1162757874 74.4059982300
-1.6961073875 1619442.0462570190 74.3330001831
-1.7056137323 1619441.9842109680 74.2570037842
-1.7108299732 1619441.9141921997 74.2119979858
-1.7190351486 1619441.8515930176 74.0979995728
-1.7246248722 1619441.7825012207 74.0159988403
-1.7307686806 1619441.7121047974 73.9749984741
-1.7393474579 1619441.6504325867 73.9440002441
-1.7445635796 1619441.5804138184 73.9440002441
-1.7501534224 1619441.5113220215 73.9240036011
-1.7592861652 1619441.4483489990 73.9449996948
-1.7645024061 1619441.3783302307 73.9550018311
-1.7700921297 1619441.3092384338 73.9700012207
-1.7782973051 1619441.2466354370 73.9720001221
-1.8774458170 1619441.2411994934 71.4140014648
-1.7848147154 1619441.1771697998 73.9540023804
-1.8539071083 1619441.1827621460 71.4300003052
-1.8247638941 1619441.1104087830 73.2180023193
-1.8594968319 1619441.1136703491 71.4189987183
-1.8299800158 1619441.0403900146 73.1900024414
-1.8656406403 1619441.0432739258 71.4300003052
-1.8038258553 1619440.9754600525 73.8150024414
-1.8738458157 1619440.9806747437 71.4300003052
-1.8129585981 1619440.9124870300 73.1770019531
-1.8794355392 1619440.9115829468 71.4380035400
-1.8502923250 1619440.8392333984 72.9440002441
-1.8555085659 1619440.7692108154 72.9479980469
-1.8911690712 1619440.7720985413 71.4160003662
-1.8323434591 1619440.7117042542 72.9850006104
-1.8963851929 1619440.7020759583 71.4339981079
-1.8414762020 1619440.6487312317 73.0120010376
-1.9019750357 1619440.6329841614 71.4270019531
-1.8470659256 1619440.5796356201 73.0279998779
-1.9071911573 1619440.5629653931 71.4329986572
-1.8522821665 1619440.5096168518 73.0780029297
-1.9166976213 1619440.5009193420 71.4300003052
-1.8578718901 1619440.4405250549 73.1110000610
-1.9219137430 1619440.4309005737 71.4300003052
-1.8640156984 1619440.3701324463 73.1380004883
-1.9275035858 1619440.3618087769 71.4400024414
-1.9327197075 1619440.2917861938 71.4300003052
-1.9095546007 1619440.2342796326 72.2229995728
-1.9156982899 1619440.1638832092 72.1809997559
-1.9212881327 1619440.0947914124 72.1819992065
-1.9265042543 1619440.0247726440 72.1689987183
-1.9347094297 1619439.9621734619 72.1740036011
-1.9699817896 1619439.8811225891 71.2880020142
-1.9464429617 1619439.8226852417 71.4580001831
-1.9520328045 1619439.7535934448 71.7190017700
-1.9572489262 1619439.6835746765 71.5839996338
-1.9667552710 1619439.6215286255 71.3610000610
-1.9775612354 1619439.4824180603 71.7220001221
-1.9827774763 1619439.4123954773 71.8759994507
-1.9743348360 1619439.2228202820 72.2770004272
-0.2212927639 1619456.1162796021 86.9390029907
-0.2307991683 1619456.0542335510 86.9410018921
-0.2390043736 1619455.9916343689 86.9440002441
-0.2472095788 1619455.9290351868 86.9440002441
-0.2554147840 1619455.8664360046 86.9400024414
-0.2352387160 1619455.8163452148 86.9300003052
-0.2473605424 1619455.7607955933 86.9120025635
-0.2777169049 1619455.3356628418 86.9140014648
-0.2859221101 1619455.2730636597 86.9169998169
-0.2954285145 1619455.2110176086 86.8779983521
-0.3036337197 1619455.1484184265 86.9110031128
