# .PCD v0.7 - Point Cloud Data file format
VERSION 0.7
FIELDS x y z intensity
SIZE 4 4 4 4
TYPE F F F F
COUNT 1 1 1 1
WIDTH 1424
HEIGHT 1
VIEWPOINT 0 0 0 1 0 0 0
POINTS 1424
DATA ascii
0.13603117 -2.694447 5.148047 0
0.13262221 -2.756947 5.1470475 0
-0.10052794 -2.631947 -9.4219522 0
-0.10393688 -2.694447 -9.427949 0
0.12372808 -3.069447 5.1630464 0
-0.051147804 -2.881947 -5.8379531 0
0.12031914 -3.131947 5.148047 0
-0.054556742 -2.944447 -5.8439498 0
0.08555679 -3.381947 3.5940464 0
0.082147844 -3.444447 3.5820453 0
-0.10171486 -3.194447 -8.1179514 0
-0.10680123 -3.319447 -8.1749506 0
0.073706642 -3.569447 3.5770481 0
0.070297696 -3.631947 3.5680454 0
-0.072173163 -3.694447 -4.8379531 0
0.079736419 -3.881947 5.148047 0
0.07470417 -4.006947 5.1500459 0
-0.10989153 -3.819447 -6.8569503 0
0.075928666 -4.131947 5.160048 0
0.070842303 -4.194447 5.1610475 0
-0.11398035 -4.319447 -5.5529494 0
0.03167247 -4.506947 3.5810459 0
-0.088112146 -4.381947 -3.8379529 0
-0.1173352 -4.381947 -5.577951 0
0.028263526 -4.569447 3.5780475 0
-0.093144402 -4.506947 -3.8579495 0
0.024908686 -4.631947 3.579047 0
0.019822324 -4.694447 3.579047 0
-0.12042549 -4.881947 -4.2609496 0
0.026850643 -5.006947 5.148047 0
-0.12551187 -4.944447 -4.3239532 0
0.023495803 -5.069447 5.148047 0
-0.10763192 -5.069447 -3.0489514 0
0.018409433 -5.194447 5.1490464 0
-0.11098677 -5.131947 -3.0249493 0
0.015054599 -5.256947 5.1470475 0
-0.12792329 -5.444447 -2.9879544 0
-0.13300964 -5.506947 -3.0619519 0
0.0027515232 -5.631947 5.148047 0
-0.036191344 -5.631947 2.9390476 0
-0.052167892 -5.631947 1.8840472 0
-0.00065743038 -5.694447 5.1510453 0
-0.039600283 -5.694447 3.0080478 0
-0.1254743 -5.694447 -2.4079525 0
-0.0057437853 -5.756947 5.1510453 0
-0.026035151 -6.131947 5.221045 0
-0.02938999 -6.194447 5.2290483 0
-0.05335483 -6.194447 3.5480487 0
-0.032798931 -6.256947 5.2340455 0
-0.058441192 -6.319447 3.5920475 0
-0.061796024 -6.381947 3.5720508 0
-0.082087383 -6.756947 3.565047 0
-0.13600826 -6.756947 0.096045189 0
-0.085496336 -6.819447 3.565047 0
-0.066844821 -7.194447 5.3680482 0
-0.070199654 -7.256947 5.3640504 0
-0.14182864 -7.256947 1.3280474 0
-0.12317713 -7.631947 3.5600498 0
-0.095577374 -7.694447 5.4410462 0
-0.12653197 -7.694447 3.5590503 0
-0.098986328 -7.756947 5.4420457 0
-0.13161834 -7.819447 3.62905 0
-0.14759488 -7.819447 2.5240467 0
-0.12698489 -7.881947 3.7970493 0
-0.13039383 -7.944447 3.8220508 0
-0.12576041 -8.0069466 4.5640473 0
-0.13883504 -8.0694466 3.9250476 0
-0.14392141 -8.1944466 3.9260471 0
-0.11464424 -8.1944466 5.8270478 0
-0.14727625 -8.2569466 3.9900501 0
-0.11805318 -8.2569466 5.8280473 0
-0.14269692 -8.3194466 4.0040498 0
-0.15577155 -8.3819466 3.9390476 0
-0.15113811 -8.4444466 3.9490497 0
-0.12186097 -8.5069466 6.0510468 0
-0.15622449 -8.5694466 4.0030503 0
-0.16756761 -8.6319466 3.8420475 0
-0.17265397 -8.6944466 3.8230503 0
-0.17606291 -8.7569466 3.8140476 0
-0.16443974 -8.8194466 4.4150453 0
-0.18450412 -8.9444466 3.5900486 0
-0.14265935 -9.0069466 6.4000459 0
-0.16830161 -9.0694466 4.9420457 0
-0.14601418 -9.0694466 6.4260468 0
-0.17165643 -9.1319466 4.9250474 0
-0.14987604 -9.3194466 6.6170487 0
-0.20524839 -9.4444466 3.5750492 0
-0.20865735 -9.5069466 3.5820453 0
-0.17938018 -9.5694466 5.6230454 0
-0.2120122 -9.5694466 3.5740497 0
-0.18273503 -9.6319466 5.634047 0
-0.16317767 -9.6944466 6.8650498 0
-0.16653249 -9.7569466 6.9090486 0
-0.16994146 -9.8194466 6.96205 0
-0.22894871 -9.8819466 3.5400455 0
-0.1732963 -9.8819466 7.0200486 0
-0.17838264 -9.9444466 7.0740495 0
-0.17380333 -10.006947 7.0780473 0
-0.17715815 -10.069447 7.0810456 0
-0.18224454 -10.194447 7.0580506 0
-0.18559936 -10.256947 7.0590501 0
-0.19068572 -10.319447 7.0590501 0
-0.19409469 -10.381947 7.0810456 0
-0.19744951 -10.444447 7.0890489 0
-0.26757392 -10.756947 3.5900486 0
-0.20929968 -10.694447 7.1090455 0
-0.27098289 -10.819447 3.5920475 0
-0.27433771 -10.881947 3.5920475 0
-0.29004973 -11.319447 4.1150498 0
-0.29513609 -11.381947 4.1020494 0
-0.31156558 -11.569447 3.5660465 0
-0.31492043 -11.631947 3.5740497 0
-0.31201851 -11.694447 3.579047 0
-0.31542745 -11.756947 3.5920475 0
-0.32045972 -11.881947 3.6020496 0
-0.32386866 -11.944447 3.603049 0
-0.32895502 -12.006947 3.6000507 0
-0.33230987 -12.069447 3.5930469 0
-0.33571881 -12.131947 3.5890491 0
-0.34075108 -12.256947 3.5920475 0
-0.34416002 -12.319447 3.5810459 0
-0.34924638 -12.381947 3.5950458 0
-0.35260123 -12.444447 3.6060474 0
-0.35601017 -12.506947 3.6060474 0
-0.36104244 -12.631947 3.6140506 0
-0.36445138 -12.694447 3.6060474 0
0.88852632 10.430553 6.6460481 0
0.87041938 10.243053 6.3580461 0
0.71263033 7.930553 3.466048 0
0.68775964 7.618053 2.6860492 0
0.6740061 7.493053 2.5050495 0
0.70300221 7.180553 5.1020494 0
0.67758691 7.430553 2.5540454 0
0.69964737 7.118053 5.0640473 0
0.6708231 7.305553 2.7590473 0
0.694561 7.055553 5.0310502 0
0.65584511 7.305553 2.0450504 0
0.69115204 6.993053 4.9260468 0
0.65249026 7.243053 1.8380495 0
0.68779719 6.930553 4.9000459 0
0.64908129 7.180553 1.662047 0
0.68438828 6.868053 4.8010468 0
0.64572644 7.118053 1.5070482 0
0.67935598 6.743053 4.759047 0
0.63432926 7.055553 1.3420473 0
0.67594707 6.680553 4.7110505 0
0.63097441 6.993053 1.1980501 0
0.67259222 6.618053 4.6660447 0
0.62756544 6.930553 1.051047 0
0.66219354 6.555553 4.5810456 0
0.61622232 6.868053 0.90904874 0
0.65710717 6.493053 4.4950471 0
0.61281341 6.805553 0.68604916 0
0.65375233 6.430553 4.4470506 0
0.60945857 6.743053 0.56404752 0
0.65034336 6.368053 4.4020448 0
0.64698851 6.305553 4.3010468 0
0.64190215 6.180553 4.2770448 0
0.6385473 6.118053 4.2000489 0
0.63513839 6.055553 4.1190476 0
0.63178355 5.993053 4.0920472 0
0.62837458 5.930553 3.9930484 0
0.62328821 5.868053 3.9640491 0
0.62982506 5.680553 4.9930482 0
0.62647021 5.618053 4.9900498 0
0.62138385 5.555553 5.0510468 0
0.62596315 5.493053 5.0650468 0
0.59088218 5.680553 2.3800495 0
0.61294264 5.368053 5.009047 0
0.58579582 5.618053 2.3980472 0
0.60953373 5.305553 4.8990464 0
0.60617888 5.243053 4.8240495 0
0.60276991 5.180553 4.7570481 0
0.59941506 5.118053 4.6750474 0
0.5960061 5.055553 4.5480485 0
0.59091979 4.993053 4.5170503 0
0.59387577 4.868053 5.0220475 0
0.5887894 4.805553 5.1310487 0
0.58538049 4.743053 5.1320481 0
0.56750053 4.805553 3.6590488 0
0.58034825 4.618053 5.1330476 0
0.56414568 4.743053 3.6620471 0
0.57693928 4.555553 5.1320481 0
0.55905932 4.680553 3.7170475 0
0.57185292 4.493053 5.134047 0
0.57648635 4.430553 5.134047 0
0.55061811 4.493053 3.7310474 0
0.57307738 4.368053 5.1360459 0
0.56804514 4.243053 5.1430497 0
0.56463623 4.180553 5.134047 0
0.55954981 4.118053 5.1350465 0
0.55619502 4.055553 5.1350465 0
0.55278605 3.993053 5.1370454 0
0.54775381 3.868053 5.1360459 0
0.54434484 3.805553 5.134047 0
0.53925848 3.743053 5.1350465 0
0.53590363 3.680553 5.1360459 0
0.51870257 3.805553 3.5090473 0
0.53249472 3.618053 5.1360459 0
0.52746242 3.493053 5.1420503 0
0.52405351 3.430553 5.134047 0
0.40210095 4.055553 -4.1299529 0
0.51896715 3.368053 5.134047 0
0.5156123 3.305553 5.134047 0
0.3764587 4.055553 -5.8909545 0
0.52019161 3.243053 5.1330476 0
0.51515937 3.118053 5.1320481 0
0.5117504 3.055553 5.1320481 0
0.50666404 2.993053 5.1330476 0
0.50330919 2.930553 5.1300492 0
0.37336838 3.555553 -4.6299529 0
0.49990025 2.868053 5.1290498 0
0.33778036 3.618053 -6.6299529 0
0.49486798 2.743053 5.1240449 0
0.49145904 2.680553 5.1330476 0
0.47258058 2.805553 3.5730503 0
0.48810422 2.618053 5.1300492 0
0.46917161 2.743053 3.5510471 0
0.35017511 3.243053 -5.05195 0
0.48301783 2.555553 5.1370454 0
0.46413937 2.618053 3.5870502 0
0.46073043 2.555553 3.5090473 0
0.46781284 2.243053 5.1380448 0
0.29139382 3.055553 -7.9929519 0
0.46272647 2.180553 5.1280503 0
0.45931754 2.118053 5.1330476 0
0.31340018 2.743053 -5.7159514 0
0.27496436 2.868053 -8.3719492 0
0.46227357 1.993053 5.1200471 0
0.30160415 2.493053 -6.0199523 0
0.42304963 1.743053 3.5640476 0
0.24327576 2.430553 -9.2689524 0
0.41969478 1.680553 3.5660465 0
0.23293118 2.368053 -9.6119547 0
0.2278448 2.305553 -9.6209497 0
0.41125357 1.493053 3.5620487 0
0.40784463 1.430553 3.5510471 0
0.25979692 1.868053 -6.6909499 0
0.41828191 1.180553 5.1370454 0
0.41492707 1.118053 5.1450486 0
0.24504486 1.743053 -6.976953 0
0.23995849 1.680553 -6.990953 0
0.18816796 1.868053 -10.584954 0
0.41342148 0.99305302 5.148047 0
0.18481311 1.805553 -10.838952 0
0.41006666 0.93055302 5.148047 0
0.15988831 1.493053 -11.407952 0
0.36726192 0.68055302 3.5720508 0
0.37016383 0.61805302 3.5780475 0
0.20423619 1.118053 -7.7229552 0
0.15144712 1.305553 -11.394952 0
0.19914983 1.055553 -7.714952 0
0.14636074 1.243053 -11.393952 0
0.19574088 0.99305302 -7.9519515 0
0.14931676 1.118053 -10.837953 0
0.19238603 0.93055302 -7.9589553 0
0.15221868 1.055553 -10.760949 0
0.3728388 0.24305302 5.1450486 0
0.35328144 0.30555302 3.5510471 0
0.14713231 0.93055302 -10.724954 0
0.36948395 0.18055302 5.1360459 0
0.34987247 0.24305302 3.5920475 0
0.37238586 0.055553015 5.384047 0
0.34484023 0.11805301 3.8300464 0
0.36104274 -0.0069469865 5.2020478 0
0.34143129 0.055553015 3.7570484 0
0.36562207 -0.069446988 5.1870484 0
0.33807644 -0.0069469865 3.5370471 0
0.36053571 -0.13194698 5.1890473 0
0.33299008 -0.069446988 3.5640476 0
0.34919259 -0.19444698 5.1140504 0
0.32958114 -0.13194698 3.5740497 0
0.32454887 -0.25694698 3.5920475 0
0.34873968 -0.38194698 5.1330476 0
0.32113993 -0.31944698 3.6450489 0
0.34533072 -0.44444698 5.1370454 0
0.31269872 -0.44444698 3.5640476 0
0.30928978 -0.50694698 3.5640476 0
0.081678912 -0.13194698 -11.408952 0
0.078269966 -0.19444698 -11.407952 0
0.2969867 -0.88194698 3.5820453 0
0.31318921 -1.006947 5.1580491 0
0.29195446 -1.006947 3.5780475 0
0.30815697 -1.131947 5.1510453 0
0.10155492 -0.63194698 -8.715951 0
0.08384683 -0.63194698 -9.9459543 0
0.30088615 -1.381947 5.134047 0
0.29585388 -1.506947 5.1470475 0
0.29244494 -1.569447 5.1350465 0
0.26316777 -1.506947 3.5800464 0
0.25981295 -1.569447 3.5780475 0
0.092379712 -1.194447 -7.8699508 0
0.082206979 -1.381947 -7.7709517 0
0.040362202 -1.319447 -10.73195 0
0.037007362 -1.381947 -10.837953 0
0.26371238 -2.069447 5.1620469 0
0.24410091 -2.006947 3.5660465 0
0.016490052 -1.631947 -11.393952 0
0.26030344 -2.131947 5.1640458 0
0.23906866 -2.131947 3.5780475 0
0.013081104 -1.694447 -11.408952 0
0.2356597 -2.194447 3.5460498 0
0.0079947347 -1.756947 -11.38495 0
0.0029624789 -1.881947 -11.462953 0
0.07067547 -2.069447 -6.8809524 0
0.065589115 -2.131947 -6.7939544 0
-0.003575346 -2.131947 -10.751954 0
0.24464551 -2.569447 5.1420503 0
-0.00067342678 -2.194447 -10.685952 0
0.23955914 -2.694447 5.1380448 0
0.21028198 -2.631947 3.5630481 0
0.23620431 -2.756947 5.122046 0
-0.00040889395 -2.631947 -9.4669504 0
0.04507079 -2.819447 -5.851953 0
-0.0054411502 -2.756947 -9.3939524 0
0.03998442 -2.881947 -5.8379531 0
0.21082659 -3.194447 5.1620469 0
0.044617862 -2.944447 -5.7969527 0
0.20741765 -3.256947 5.1610475 0
0.18518433 -3.256947 3.5880497 0
0.18177539 -3.319447 3.5720508 0
-0.0061751441 -3.194447 -8.1689539 0
-0.0095299846 -3.256947 -8.140954 0
-0.014616354 -3.319447 -8.1319513 0
0.16148402 -3.694447 3.5870502 0
0.18667336 -3.819447 5.1500459 0
0.15639767 -3.756947 3.5510471 0
0.02509808 -3.631947 -4.8619552 0
0.18331853 -3.881947 5.148047 0
0.02001171 -3.694447 -4.8109527 0
0.014925339 -3.819447 -4.851953 0
-0.013618826 -3.756947 -6.8859496 0
-0.018705187 -3.819447 -6.827951 0
0.16302717 -4.256947 5.1610475 0
0.15961823 -4.319447 5.1510453 0
0.12888959 -4.444447 3.5820453 0
-0.021795494 -4.319447 -5.5909514 0
0.12380324 -4.506947 3.5780475 0
0.0040727197 -4.444447 -3.8629544 0
-0.026881857 -4.444447 -5.5439544 0
-0.0010136501 -4.506947 -3.8249524 0
0.11200718 -4.756947 3.5680454 0
0.10859824 -4.819447 3.5730503 0
0.13446645 -4.881947 5.160048 0
-0.025884328 -4.819447 -4.3029494 0
0.1294342 -5.006947 5.160048 0
-0.021305 -4.881947 -4.2699523 0
-0.026337257 -5.006947 -4.2449508 0
-0.015447057 -5.069447 -3.0289547 0
-0.018856009 -5.131947 -3.0109494 0
0.1141751 -5.256947 5.1620469 0
0.10914284 -5.381947 5.160048 0
-0.0243953 -5.381947 -3.0099499 0
-0.02775014 -5.444447 -2.9949505 0
-0.032836512 -5.569447 -2.9929516 0
0.093883745 -5.631947 5.1510453 0
0.054940879 -5.631947 2.8850467 0
0.039962851 -5.631947 1.8100497 0
0.088851489 -5.756947 5.1510453 0
0.059574321 -5.694447 3.0780475 0
-0.034287974 -5.694447 -2.4189541 0
0.085442543 -5.819447 5.1470475 0
-0.037696913 -5.756947 -2.3679516 0
0.05062608 -6.006947 3.565047 0
0.078225836 -6.069447 5.1890473 0
0.047271252 -6.069447 3.5510471 0
0.073139459 -6.194447 5.2110505 0
0.042184882 -6.194447 3.5510471 0
-0.035700843 -6.194447 -1.198953 0
-0.03905569 -6.256947 -1.1479505 0
0.06637568 -6.319447 5.2340455 0
0.03374368 -6.319447 3.5750492 0
-0.044142053 -6.319447 -1.2179502 0
0.06128931 -6.381947 5.2450471 0
0.021440605 -6.694447 3.5640476 0
0.018031651 -6.756947 3.565047 0
-0.046553463 -6.819447 0.092047386 0
0.01467681 -6.819447 3.5640476 0
0.0095904553 -6.944447 3.5680454 0
0.028694885 -7.131947 5.360045 0
0.025340045 -7.194447 5.3700471 0
-0.046234816 -7.256947 1.263045 0
0.021931091 -7.256947 5.3680482 0
-0.051321194 -7.319447 1.2820498 0
-0.019142104 -7.444447 3.3700473 0
-0.023003979 -7.694447 3.5900486 0
0.0045957654 -7.756947 5.4810472 0
-0.026358819 -7.756947 3.5640476 0
-0.03144519 -7.819447 3.6090457 0
-0.034854144 -7.881947 3.7730472 0
-0.023230946 -7.944447 4.634047 0
-0.036305591 -8.0694466 3.9940479 0
-0.039660424 -8.1319466 3.9260471 0
-0.011116258 -8.1944466 5.8000474 0
-0.044746801 -8.1944466 3.914046 0
-0.048155755 -8.2569466 3.940047 0
-0.051510572 -8.3194466 3.9330509 0
-0.05659695 -8.4444466 3.9350498 0
-0.059951782 -8.5069466 3.9130466 0
-0.022740444 -8.5069466 6.0400453 0
-0.065038145 -8.5694466 3.853049 0
-0.068447098 -8.6319466 3.8840473 0
-0.063813657 -8.6944466 4.3250489 0
-0.076888308 -8.8194466 3.7950504 0
-0.08197467 -8.8819466 3.5940464 0
-0.085329503 -8.9444466 3.5890491 0
-0.03839837 -8.9444466 6.3700471 0
-0.043484733 -9.0694466 6.3930497 0
-0.055334881 -9.2569466 6.5770478 0
-0.058689713 -9.3194466 6.5900483 0
-0.078754112 -9.4444466 5.2710481 0
-0.080205575 -9.5694466 5.648047 0
-0.12255737 -9.6319466 3.5470493 0
-0.12932117 -9.7569466 3.5680454 0
-0.084067434 -9.8194466 6.1010499 0
-0.13435343 -9.8819466 3.5750492 0
-0.069768295 -9.8194466 7.0330491 0
-0.12977409 -9.9444466 3.5580509 0
-0.074854672 -9.9444466 7.0530457 0
-0.078209504 -10.006947 7.1910462 0
-0.081618443 -10.069447 7.1850495 0
-0.084973291 -10.131947 7.172049 0
-0.090059653 -10.194447 7.1490464 0
-0.093468606 -10.256947 7.1430497 0
-0.098500863 -10.381947 7.134047 0
-0.10190982 -10.444447 7.1300492 0
-0.097276375 -10.506947 7.1200471 0
-0.10236272 -10.569447 7.122046 0
-0.10577168 -10.631947 7.1200471 0
-0.10912652 -10.694447 7.1190476 0
-0.11421289 -10.819447 7.1140504 0
-0.18388438 -10.944447 3.5590503 0
-0.11756772 -10.881947 7.1170487 0
-0.1872392 -11.006947 3.5800464 0
-0.19064817 -11.069447 3.5660465 0
-0.18987659 -11.319447 4.1320481 0
-0.20295125 -11.444447 3.5540454 0
-0.20803759 -11.506947 3.5590503 0
-0.21139243 -11.569447 3.5470493 0
-0.22034067 -11.881947 3.8160465 0
-0.240125 -12.131947 3.5890491 0
-0.24521136 -12.194447 3.591048 0
-0.24063203 -12.256947 3.5900486 0
-0.24907324 -12.444447 3.5930469 0
-0.25242805 -12.506947 3.5870502 0
-0.26092339 -12.631947 3.5880497 0
-0.26427823 -12.694447 3.6590488 0
-0.26768717 -12.756947 3.8140476 0
0.93963796 10.243053 6.3780503 0
0.81589377 8.3680534 4.1630464 0
0.7835263 7.930553 3.4950473 0
0.76877421 7.805553 3.1150501 0
0.75066733 7.618053 2.6980503 0
0.78066194 7.305553 5.259047 0
0.77730709 7.243053 5.1620469 0
0.74390358 7.493053 2.5230472 0
0.77222079 7.118053 5.1160493 0
0.73881716 7.430553 2.6590488 0
0.76881182 7.055553 5.0580506 0
0.74171913 7.305553 2.8010471 0
0.76545697 6.993053 5.0200486 0
0.72574252 7.305553 1.9560457 0
0.76204801 6.930553 4.936049 0
0.72238767 7.243053 1.7590472 0
0.75869322 6.868053 4.8690476 0
0.71099049 7.180553 1.6030489 0
0.7536068 6.805553 4.7820497 0
0.70763564 7.118053 1.4530474 0
0.75025201 6.743053 4.7390504 0
0.70422667 7.055553 1.2900454 0
0.73885477 6.680553 4.7010484 0
0.70087183 6.993053 1.1580492 0
0.73549992 6.618053 4.6020494 0
0.68947464 6.930553 0.99704617 0
0.73041356 6.493053 4.5630479 0
0.72700459 6.430553 4.5250459 0
0.68271083 6.805553 0.66304654 0
0.7236498 6.368053 4.4390473 0
0.72024083 6.305553 4.3530488 0
0.71520859 6.243053 4.3020463 0
0.71179962 6.180553 4.2670503 0
0.70844477 6.118053 4.1620469 0
0.70503581 6.055553 4.1150498 0
0.69994944 5.930553 4.0780473 0
0.6965946 5.930553 3.9900501 0
0.70412999 5.743053 5.0670457 0
0.70072103 5.680553 5.0590501 0
0.69563466 5.555553 5.061049 0
0.69227982 5.493053 5.035048 0
0.68719345 5.430553 5.0510468 0
0.65211248 5.680553 2.3780506 0
0.68383861 5.368053 5.023047 0
0.6804297 5.305553 4.9390473 0
0.67707485 5.243053 4.8280473 0
0.67198849 5.180553 4.922049 0
0.67389184 5.055553 5.023047 0
0.67053699 4.993053 5.1060472 0
0.66545063 4.930553 5.1200471 0
0.66204172 4.868053 5.1200471 0
0.64416176 4.930553 3.6970508 0
0.65868688 4.805553 5.122046 0
0.64080691 4.868053 3.6570499 0
0.65360051 4.680553 5.1230454 0
0.637398 4.805553 3.6070468 0
0.65024567 4.618053 5.122046 0
0.63231158 4.743053 3.6000507 0
0.6451593 4.555553 5.1310487 0
0.64973861 4.493053 5.134047 0
0.64638376 4.430553 5.134047 0
0.6412974 4.305553 5.134047 0
0.63794255 4.243053 5.134047 0
0.63285625 4.180553 5.1330476 0
0.62944728 4.118053 5.1300492 0
0.62609243 4.055553 5.1330476 0
0.62100607 3.930553 5.134047 0
0.61765122 3.868053 5.1360459 0
0.61256486 3.805553 5.1420503 0
0.59636235 3.930553 3.5510471 0
0.60915589 3.743053 5.1360459 0
0.59295338 3.868053 3.5370471 0
0.60580105 3.680553 5.134047 0
0.58792114 3.743053 3.5080478 0
0.60071468 3.555553 5.134047 0
0.5973599 3.493053 5.1320481 0
0.59227347 3.430553 5.134047 0
0.47032097 4.055553 -4.0759521 0
0.59685284 3.368053 5.1330476 0
0.59349799 3.305553 5.1310487 0
0.43768898 3.993053 -5.839952 0
0.58841163 3.180553 5.1240449 0
0.58505678 3.118053 5.1200471 0
0.57997042 3.055553 5.1320481 0
0.57656151 2.993053 5.1290498 0
0.57320666 2.930553 5.1280503 0
0.43527755 3.555553 -4.6299529 0
0.5681203 2.805553 5.110045 0
0.40600041 3.555553 -6.6409545 0
0.56476545 2.743053 5.1060472 0
0.54683143 2.868053 3.5450504 0
0.54347658 2.805553 3.5590503 0
0.4234274 3.305553 -5.0609527 0
0.39124835 3.430553 -7.1119552 0
0.53839022 2.680553 3.5510471 0
0.41834104 3.243053 -5.0629516 0
0.53503537 2.618053 3.5510471 0
0.54106516 2.305553 5.1300492 0
0.54396707 2.243053 5.1330476 0
0.35961387 2.993053 -7.9779525 0
0.54061222 2.180553 5.1230454 0
0.34821662 2.930553 -8.3249521 0
0.53552586 2.055553 5.134047 0
0.3627803 2.493053 -6.0219512 0
0.49294707 1.743053 3.5780475 0
0.30450603 2.430553 -9.3089533 0
0.3010971 2.368053 -9.5989542 0
0.48115104 1.493053 3.553046 0
0.47606465 1.430553 3.5500476 0
0.32605946 1.930553 -6.6919494 0
0.32270464 1.868053 -6.7179503 0
0.49616763 1.180553 5.1360459 0
0.49108127 1.118053 5.1330476 0
0.31420931 1.743053 -6.9639525 0
0.2580654 1.868053 -10.671952 0
0.48264006 0.93055302 5.1460481 0
0.25303316 1.743053 -10.849954 0
0.47928521 0.86805302 5.1430497 0
0.23319471 1.555553 -11.45295 0
0.22810835 1.430553 -11.438951 0
0.44347024 0.68055302 3.5870502 0
0.43838385 0.55555302 3.5870502 0
0.27240211 1.118053 -7.7259536 0
0.21966714 1.305553 -11.422952 0
0.21458077 1.180553 -11.421952 0
0.26563832 0.99305302 -7.9359527 0
0.21748269 1.118053 -10.85595 0
0.4265337 0.36805302 3.5330493 0
0.2204387 0.99305302 -10.740952 0
0.44205734 0.18055302 5.1580491 0
0.42317888 0.30555302 3.5520465 0
0.44569227 0.11805301 5.2170472 0
0.42608079 0.18055302 3.7590473 0
0.4422833 0.055553015 5.3430467 0
0.42272595 0.11805301 3.7670505 0
0.43719694 -0.0069469865 5.160048 0
0.43384209 -0.069446988 5.1660447 0
0.40624237 -0.0069469865 3.5540454 0
0.43043315 -0.13194698 5.160048 0
0.40288752 -0.069446988 3.5330493 0
0.42540091 -0.25694698 5.3670487 0
0.39780116 -0.19444698 3.5730503 0
0.40243459 -0.25694698 3.5900486 0
0.41690558 -0.38194698 5.1370454 0
0.39734823 -0.31944698 3.7690494 0
0.41355076 -0.44444698 5.1330476 0
0.39058444 -0.44444698 3.5510471 0
0.15157637 -0.13194698 -11.42695 0
0.14648999 -0.19444698 -11.449952 0
0.36520672 -0.94444698 3.5880497 0
0.38939753 -1.069447 5.148047 0
0.38604268 -1.131947 5.134047 0
0.17770912 -0.63194698 -8.7299509 0
0.15206686 -0.69444698 -9.9359522 0
0.36910617 -1.444447 5.1440492 0
0.36575133 -1.506947 5.1360459 0
0.36066496 -1.569447 5.122046 0
0.34105349 -1.506947 3.5620487 0
0.33602124 -1.631947 3.5590503 0
0.16159828 -1.256947 -7.8769546 0
0.15651192 -1.319447 -7.7719512 0
0.15310296 -1.381947 -7.7679534 0
0.11125818 -1.319447 -10.725953 0
0.10617182 -1.381947 -10.837953 0
0.34159812 -2.069447 5.1630464 0
0.31232095 -2.069447 3.5870502 0
0.0863875 -1.631947 -11.408952 0
0.33651173 -2.194447 5.1590486 0
0.3089661 -2.131947 3.5640476 0
0.08130113 -1.694447 -11.38395 0
0.076214761 -1.819447 -11.392953 0
0.14398187 -2.006947 -6.865953 0
0.072859935 -1.881947 -11.476953 0
0.1388955 -2.069447 -6.877954 0
0.13380915 -2.194447 -6.7839522 0
0.07067547 -2.069447 -10.750955 0
0.072578855 -2.131947 -10.713952 0
0.31286556 -2.631947 5.1470475 0
0.29157665 -2.569447 3.5680454 0
0.30945659 -2.694447 5.1430497 0
0.28816772 -2.631947 3.5780475 0
0.072897501 -2.569447 -9.4619532 0
0.067811131 -2.694447 -9.4389505 0
0.12127909 -2.819447 -5.8799529 0
0.064456291 -2.756947 -9.427949 0
0.29206717 -3.131947 5.1520448 0
0.11787015 -2.881947 -5.8169494 0
0.28871232 -3.194447 5.1590486 0
0.25434878 -3.256947 3.5870502 0
0.25099394 -3.319447 3.5760486 0
0.06372229 -3.194447 -8.1579523 0
0.058635931 -3.256947 -8.1419535 0
0.24104717 -3.631947 3.5580509 0
0.23769233 -3.694447 3.5680454 0
0.25657082 -3.819447 5.1490464 0
0.10125227 -3.631947 -4.8669524 0
0.25148445 -3.881947 5.148047 0
0.096220024 -3.756947 -4.78795 0
0.055545632 -3.756947 -6.8709502 0
0.050513372 -3.881947 -6.851953 0
0.24426773 -4.194447 5.1620469 0
0.23918135 -4.256947 5.1660447 0
0.20046447 -4.381947 3.5920475 0
0.059445072 -4.256947 -5.601953 0
0.2050979 -4.444447 3.5880497 0
0.077379122 -4.381947 -3.8809521 0
0.054412812 -4.381947 -5.6339507 0
0.080281034 -4.444447 -3.835954 0
0.075194664 -4.569447 -3.8249524 0
0.18816139 -4.756947 3.5780475 0
0.18480656 -4.819447 3.5670459 0
0.20368503 -4.944447 5.1460481 0
0.050323982 -4.881947 -4.2999511 0
0.20033018 -5.006947 5.148047 0
0.046915032 -4.944447 -4.2549529 0
0.062438663 -5.069447 -3.0329525 0
0.1947909 -5.256947 5.1620469 0
0.057352301 -5.194447 -3.0049527 0
0.19138195 -5.319447 5.1570497 0
0.043824732 -5.444447 -3.0149548 0
0.040469892 -5.506947 -3.0009549 0
0.097292691 -5.569447 0.61405057 0
0.058349833 -5.569447 -1.6589521 0
0.17109059 -5.694447 5.148047 0
0.13114919 -5.694447 3.0460498 0
0.16773576 -5.756947 5.1570497 0
0.13578263 -5.756947 3.0350482 0
0.04291888 -5.756947 -2.4479535 0
0.03950993 -5.819447 -2.4139493 0
0.12683439 -6.069447 3.5750492 0
0.15443414 -6.131947 5.2170472 0
0.12347955 -6.131947 3.5720508 0
0.14934777 -6.194447 5.2260499 0
0.11839319 -6.194447 3.5660465 0
0.040507462 -6.194447 -1.1539549 0
0.14593883 -6.256947 5.2310472 0
0.11498424 -6.256947 3.5370471 0
0.037098512 -6.256947 -1.125955 0
0.142584 -6.319447 5.2410493 0
0.099326335 -6.694447 3.5640476 0
0.034741212 -6.756947 0.05104702 0
0.094239965 -6.819447 3.5640476 0
0.031332262 -6.819447 0.08204525 0
0.090885125 -6.881947 3.5600498 0
0.10998955 -7.069447 5.3560472 0
0.10490319 -7.194447 5.3640504 0
0.10154835 -7.256947 5.3680482 0
0.029919384 -7.256947 1.2550493 0
0.098139405 -7.319447 5.372046 0
0.02656454 -7.319447 1.2810503 0
0.062098451 -7.381947 3.2970493 0
0.077848054 -7.694447 5.4530473 0
0.04521605 -7.694447 3.5640476 0
0.082481496 -7.756947 5.4570451 0
0.0418071 -7.756947 3.5640476 0
0.044763122 -7.881947 3.7170475 0
0.041354172 -7.944447 3.8010471 0
0.052977361 -8.0069466 4.4950471 0
0.03291297 -8.0694466 3.9010456 0
0.070178412 -8.1319466 5.7540498 0
0.037492301 -8.1319466 3.9950473 0
0.06509205 -8.1944466 5.7820497 0
0.034137461 -8.1944466 3.9390476 0
0.029051105 -8.3194466 3.9390476 0
0.025696265 -8.3819466 3.9510486 0
0.020609895 -8.4444466 3.940047 0
0.049887061 -8.5069466 6.023047 0
0.017200956 -8.5069466 3.9500492 0
0.054466393 -8.5694466 6.0390458 0
0.012168691 -8.6319466 3.9120471 0
0.0087597454 -8.6944466 3.8600452 0
0.012394653 -8.7569466 4.3280473 0
0.00031854349 -8.8194466 3.6740482 0
-0.00309041 -8.8819466 3.5870502 0
0.041164782 -8.9444466 6.3140473 0
-0.0081226667 -9.0069466 3.5360477 0
0.037809942 -9.0069466 6.3850465 0
0.0080798501 -9.1319466 4.9430451 0
0.020873422 -9.3194466 6.6060472 0
0.00080903014 -9.3819466 5.3160462 0
0.00035610932 -9.5694466 5.6210465 0
-0.040264174 -9.5694466 3.5640476 0
-0.0029987306 -9.6319466 5.6430497 0
-0.043673113 -9.6319466 3.5640476 0
-0.048705384 -9.7569466 3.5780475 0
-0.052114323 -9.8194466 3.5660465 0
-0.0061817155 -9.8194466 6.0780473 0
-0.050210953 -9.8819466 3.5590503 0
0.006440015 -9.8819466 7.009047 0
0.0030310615 -9.9444466 7.1830506 0
-0.0020553083 -10.006947 7.186049 0
-0.0054101483 -10.069447 7.1770463 0
-0.0088190874 -10.131947 7.1630464 0
-0.013851351 -10.256947 7.1500459 0
-0.0092720157 -10.319447 7.1370454 0
-0.012626856 -10.381947 7.1310487 0
-0.017713217 -10.444447 7.1240449 0
-0.021122171 -10.506947 7.1200471 0
-0.026154427 -10.631947 7.1200471 0
-0.029563366 -10.694447 7.1200471 0
-0.032918207 -10.756947 7.1180482 0
-0.038004577 -10.819447 7.1190476 0
-0.098010376 -10.944447 3.5680454 0
-0.041413531 -10.881947 7.1190476 0
-0.10309672 -11.006947 3.5960453 0
-0.11366828 -11.381947 4.0640473 0
-0.12674293 -11.444447 3.5730503 0
-0.13182929 -11.569447 3.5750492 0
-0.139046 -11.819447 3.8390491 0
-0.15257357 -12.069447 3.6020496 0
-0.15598252 -12.131947 3.6020496 0
-0.15933737 -12.194447 3.603049 0
-0.17286494 -12.444447 3.6010501 0
-0.18130612 -12.631947 3.6010501 0
-0.18471509 -12.694447 3.6100452 0
-0.18008164 -12.756947 3.7570484 0
1.058597 10.430553 6.4830461 0
0.82614166 7.118053 1.4950472 0
0.80897915 6.930553 1.1510454 0
0.8022154 6.805553 0.74304837 0
0.78243107 6.618053 0.34404629 0
0.7790221 6.555553 0.18305081 0
0.76767898 6.493053 0.037047081 0
0.76427007 6.430553 0.035048179 0
0.76717198 6.305553 0.038046531 0
0.76381713 6.243053 0.13304776 0
0.75873077 6.180553 0.23104733 0
0.76163268 6.055553 0.44705075 0
0.75660044 5.993053 0.60005063 0
0.73939937 6.118053 -0.96495181 0
0.75151408 5.868053 0.71205014 0
0.72800213 6.055553 -1.1599516 0
0.75341743 5.805553 0.81504697 0
0.75006258 5.743053 0.92104977 0
0.74497622 5.618053 1.0410448 0
0.74787813 5.555553 1.1340472 0
0.74452329 5.493053 1.0490481 0
0.73312604 5.430553 0.65004605 0
0.71647066 5.368053 0.060049705 0
0.7021715 5.430553 -1.0919508 0
0.68719345 5.430553 -2.0709546 0
0.67585033 5.368053 -2.5049527 0
0.66059124 5.118053 -2.7869503 0
0.64293724 5.055553 -3.5189526 0
0.63958246 4.993053 -3.5199521 0
0.63108712 4.868053 -3.8559506 0
0.63404316 4.743053 -3.3109524 0
0.62895679 4.680553 -3.3249524 0
0.62051558 4.493053 -3.5049527 0
0.59922665 4.555553 -4.7299514 0
0.5743019 4.243053 -5.2009521 0
0.58547217 3.993053 -4.1859527 0
0.55278605 3.993053 -5.9629531 0
0.56222481 3.743053 -4.5529494 0
0.5571925 3.618053 -4.5609527 0
0.52959281 3.680553 -6.5429549 0
0.50975436 3.493053 -7.1959548 0
0.66320705 2.680553 4.2830491 0
0.53857857 3.305553 -5.1409545 0
0.50639951 3.430553 -7.2129531 0
0.65812069 2.555553 4.2110505 0
0.53349221 3.180553 -5.1599517 0
0.65476584 2.493053 4.1440492 0
0.65135694 2.430553 4.0370469 0
0.64800209 2.368053 3.9470508 0
0.4814747 3.118053 -7.8249526 0
0.64291573 2.305553 3.8660495 0
0.50962007 2.868053 -5.5739532 0
0.65112996 2.180553 5.0920472 0
0.6460436 2.055553 5.0650468 0
0.46436632 2.930553 -8.4599543 0
0.64268875 1.993053 4.9660478 0
0.63927978 1.930553 4.8880448 0
0.63592494 1.868053 4.7830491 0
0.63083857 1.805553 4.7010484 0
0.47793147 2.430553 -6.1129546 0
0.62748373 1.743053 4.6040483 0
0.43608671 2.555553 -9.1859522 0
0.62407482 1.680553 4.5060487 0
0.6127317 1.618053 4.4120469 0
0.60932273 1.555553 4.3310456 0
0.60423636 1.430553 4.2340455 0
0.60088152 1.368053 4.1290498 0
0.59747261 1.305553 4.0190492 0
0.60668534 1.180553 5.0940461 0
0.6016531 1.118053 5.0920472 0
0.59824419 1.055553 5.1000504 0
0.59315777 0.93055302 5.0770478 0
0.58980298 0.86805302 5.023047 0
0.58639401 0.80555302 4.9820466 0
0.58136177 0.74305302 4.985045 0
0.58594108 0.68055302 5.0070481 0
0.58258623 0.61805302 5.0510468 0
0.57749987 0.49305302 5.0760484 0
0.57409096 0.43055302 5.0750489 0
0.56905866 0.36805302 5.1010499 0
0.56564975 0.30555302 5.1470475 0
0.56056339 0.18055302 5.1560502 0
0.54168493 0.30555302 3.6340473 0
0.55720854 0.11805301 5.1520448 0
0.53659856 0.24305302 3.6340473 0
0.55379957 0.055553015 5.1580491 0
0.5567556 -0.0069469865 5.1570497 0
0.55334669 -0.069446988 5.1590486 0
0.54826027 -0.19444698 5.1610475 0
0.54490548 -0.25694698 5.160048 0
0.54149652 -0.31944698 5.1620469 0
0.53646427 -0.38194698 5.1620469 0
0.53305531 -0.44444698 5.1620469 0
0.52970046 -0.50694698 5.1580491 0
0.5246141 -0.56944698 5.160048 0
0.52120513 -0.69444698 5.1580491 0
0.50064927 -0.56944698 3.5360477 0
0.51617289 -0.75694698 5.1620469 0
0.27008238 -0.069446988 -11.45295 0
0.51276398 -0.81944698 5.160048 0
0.49220803 -0.75694698 3.5680454 0
0.50940913 -0.88194698 5.1610475 0
0.50432277 -0.94444698 5.1570497 0
0.50790352 -1.069447 5.1590486 0
0.28006673 -0.50694698 -9.7269526 0
0.50454873 -1.069447 5.1580491 0
0.29626924 -0.63194698 -8.6349497 0
0.49946234 -1.194447 5.1610475 0
0.49610749 -1.256947 5.1520448 0
0.49102113 -1.319447 5.1490464 0
0.48761216 -1.381947 5.1500459 0
0.48425734 -1.444447 5.1520448 0
0.47917098 -1.569447 5.1580491 0
0.28519067 -1.131947 -7.9279494 0
0.47581613 -1.631947 5.1590486 0
0.47072977 -1.694447 5.1520448 0
0.45111829 -1.631947 3.5780475 0
0.23317315 -1.194447 -10.685952 0
0.46732083 -1.756947 5.1470475 0
0.44776347 -1.694447 3.579047 0
0.27965137 -1.381947 -7.6749511 0
0.46396598 -1.819447 5.1350465 0
0.44267711 -1.819447 3.5610492 0
0.22473194 -1.381947 -10.876954 0
0.43932226 -1.881947 3.5920475 0
0.21333471 -1.444447 -11.41295 0
0.4342359 -1.944447 3.5860507 0
0.20824835 -1.506947 -11.413949 0
0.4516629 -2.194447 5.1590486 0
0.19472077 -1.756947 -11.407952 0
0.44657654 -2.319447 5.160048 0
0.44322169 -2.381947 5.1510453 0
0.43981275 -2.444447 5.1580491 0
0.43472639 -2.506947 5.1490464 0
0.25694859 -2.194447 -6.6989532 0
0.19213751 -2.131947 -10.625955 0
0.18872857 -2.194447 -10.613954 0
0.39823252 -2.756947 3.5770481 0
0.19140351 -2.569447 -9.5589533 0
0.24587001 -2.694447 -5.964952 0
0.38643646 -3.006947 3.5920475 0
0.19095059 -2.694447 -9.288949 0
0.3813501 -3.069447 3.5920475 0
0.23234244 -2.944447 -5.7169509 0
0.39877713 -3.319447 5.1590486 0
0.39536816 -3.381947 5.1370454 0
0.18322684 -3.131947 -8.2719507 0
0.18518433 -3.256947 -8.0329523 0
0.38692698 -3.569447 5.1440492 0
0.18177539 -3.319447 -8.0209513 0
0.38184059 -3.631947 5.1460481 0
0.21685638 -3.506947 -4.9819503 0
0.34875566 -3.819447 3.5780475 0
0.17746058 -3.694447 -6.9969497 0
0.34534672 -3.881947 3.5750492 0
0.21131709 -3.756947 -4.7089553 0
0.17700766 -3.819447 -6.7239547 0
0.32846433 -4.194447 3.5800464 0
0.32505539 -4.256947 3.5780475 0
0.35097769 -4.381947 5.1650453 0
0.20023851 -4.256947 -4.0329528 0
0.17800519 -4.256947 -5.7329497 0
0.34589133 -4.444447 5.1640458 0
0.19688366 -4.319447 -3.9489529 0
0.16950987 -4.381947 -5.4349532 0
0.19370067 -4.506947 -3.7279522 0
0.33404118 -4.694447 5.148047 0
0.19034584 -4.569447 -3.7269528 0
0.33068636 -4.756947 5.1460481 0
0.3256 -4.819447 5.1230454 0
0.1749149 -4.756947 -4.4179549 0
0.29822621 -4.881947 3.553046 0
0.17150594 -4.819447 -4.4359527 0
0.29487136 -4.944447 3.5580509 0
0.16641958 -4.881947 -4.2129531 0
0.18435362 -5.006947 -3.1119549 0
0.17585832 -5.131947 -2.9389508 0
0.16741711 -5.319447 -3.1549542 0
0.30144677 -5.444447 5.1570497 0
0.29809192 -5.506947 5.1470475 0
0.16696419 -5.444447 -2.9069531 0
0.27071813 -5.569447 3.5820453 0
0.21679725 -5.569447 0.47804898 0
0.17785437 -5.569447 -1.7659544 0
0.28959662 -5.631947 5.148047 0
0.26563177 -5.631947 3.539046 0
0.28624177 -5.694447 5.1620469 0
0.26227692 -5.694447 3.5510471 0
0.25886798 -5.756947 3.5580509 0
0.15801595 -5.756947 -2.2049496 0
0.27780056 -5.881947 5.1760468 0
0.27439162 -5.944447 5.1870484 0
0.16409984 -6.069447 -1.311952 0
0.15901348 -6.194447 -1.3079542 0
0.23354436 -6.256947 3.5640476 0
0.23013541 -6.319447 3.5720508 0
0.15856056 -6.319447 -0.9819501 0
0.25700217 -6.381947 5.2980485 0
0.25364733 -6.444447 5.3010468 0
0.22627354 -6.506947 3.5820453 0
0.15933213 -6.631947 -0.10695011 0
0.15782656 -6.756947 0.21704739 0
0.15279429 -6.881947 0.2210452 0
0.23693678 -6.881947 5.3250489 0
0.23190451 -7.006947 5.3260484 0
0.20094994 -7.006947 3.565047 0
0.15351175 -7.131947 1.1090456 0
0.15305883 -7.319447 1.426047 0
0.21329059 -7.319447 5.4020448 0
0.14797246 -7.381947 1.4550463 0
0.20820421 -7.444447 5.3940492 0
0.17216326 -7.506947 3.565047 0
0.1767967 -7.569447 3.5780475 0
0.20434235 -7.631947 5.4420457 0
0.1477455 -7.694447 2.2740467 0
0.2009875 -7.694447 5.4570451 0
0.18791285 -7.819447 4.9810472 0
0.14729257 -7.819447 2.5510471 0
0.18455802 -7.881947 4.8920503 0
0.15650536 -7.944447 3.8140476 0
0.18405099 -8.0069466 5.6900468 0
0.15940726 -8.0694466 3.8400486 0
0.15605243 -8.1319466 3.9750507 0
0.15264347 -8.1944466 3.89305 0
0.14755711 -8.2569466 3.8980472 0
0.14420228 -8.3194466 3.8980472 0
0.1391159 -8.4444466 3.8980472 0
0.17638135 -8.4444466 6.0360475 0
0.13576107 -8.5069466 3.9680469 0
0.17297241 -8.5069466 6.0500474 0
0.1403404 -8.5694466 4.1050477 0
0.12726575 -8.6319466 3.8440464 0
0.1645312 -8.6944466 6.1890473 0
0.12391091 -8.6944466 3.7580478 0
0.16117637 -8.7569466 6.2010484 0
0.13547999 -8.7569466 4.547049 0
0.11546971 -8.8819466 3.5890491 0
0.15222812 -9.0694466 6.3960481 0
0.14887328 -9.1319466 6.4940476 0
0.14546435 -9.1944466 6.5200486 0
0.14736772 -9.2569466 6.6290498 0
0.14401288 -9.3194466 6.6450486 0
0.14060393 -9.3819466 6.648047 0
0.13557167 -9.5069466 6.648047 0
0.13216272 -9.5694466 6.6240449 0
0.12880789 -9.6319466 6.6190476 0
0.12372153 -9.6944466 6.4120469 0
0.069347709 -9.8819466 3.5770481 0
0.065938763 -9.9444466 3.5870502 0
0.11187137 -9.9444466 6.2760453 0
0.11650481 -10.006947 6.7270494 0
0.10510758 -10.069447 6.523047 0
0.10974103 -10.131947 6.8170457 0
0.10465466 -10.194447 6.7990479 0
0.10124571 -10.256947 6.8560472 0
0.08894264 -10.631947 7.1330476 0
0.02049564 -10.881947 3.5680454 0
0.01546339 -11.006947 3.5680454 0
0.012054444 -11.069447 3.5680454 0
0.0086996043 -11.131947 3.5780475 0
0.0036132424 -11.194447 3.5800464 0
0.00020428884 -11.256947 3.5820453 0
0.0048377304 -11.319447 4.1060472 0
0.046229582 -11.569447 7.21205 0
0.04114322 -11.694447 7.2170472 0
0.03778838 -11.756947 7.221045 0
0.03437943 -11.819447 7.2310472 0
0.029293062 -11.881947 7.2310472 0
0.033926509 -11.944447 7.2400498 0
0.030517561 -12.006947 7.2440476 0
0.027162725 -12.069447 7.247046 0
0.022076355 -12.194447 7.2450471 0
-0.049272552 -12.319447 3.591048 0
0.018721523 -12.256947 7.2450471 0
-0.054358914 -12.444447 3.5920475 0
0.013635152 -12.319447 7.2450471 0
-0.057713762 -12.506947 3.6060474 0
0.010226198 -12.381947 7.2550492 0
-0.061122701 -12.569447 3.5860507 0
0.006871359 -12.444447 7.2550492 0
-0.066209063 -12.631947 3.6000507 0
0.001785004 -12.569447 7.259047 0
-0.0015698359 -12.631947 7.259047 0
-0.0049787895 -12.694447 7.259047 0
-0.010065145 -12.756947 7.2580476 0
-0.013419985 -12.819447 7.2570481 0
-0.016828937 -12.881947 7.2420487 0
-0.021861186 -13.006947 7.2060456 0
-0.02527014 -13.069447 7.1970506 0
1.1249136 10.493053 6.634047 0
1.1215045 10.430553 6.5240464 0
0.85278141 6.743053 0.74104947 0
0.84601766 6.618053 0.35204953 0
0.82885516 6.430553 0.022047693 0
0.83081263 6.368053 0.13604611 0
0.82572627 6.243053 0.20504636 0
0.81074828 6.243053 -0.47695285 0
0.80733931 6.180553 -0.67195255 0
0.82018697 5.993053 0.54104489 0
0.79258728 6.055553 -1.0519499 0
0.78755498 5.993053 -1.198953 0
0.80202597 5.805553 -0.045953102 0
0.79699373 5.743053 -0.021951025 0
0.77280295 5.868053 -1.5179533 0
0.79358476 5.680553 -0.024949377 0
0.76939398 5.805553 -1.7099546 0
0.7884984 5.555553 -0.035950966 0
0.76603913 5.743053 -1.8249525 0
0.78514355 5.493053 -0.020951575 0
0.78005719 5.430553 0.0050494014 0
0.77139008 5.368053 -0.60195285 0
0.76172435 5.368053 -1.1579527 0
0.73775953 5.368053 -2.1859524 0
0.72423196 5.118053 -2.7649548 0
0.70416754 4.993053 -3.5499508 0
0.68773806 4.868053 -3.8139508 0
0.69231743 4.805553 -3.8129513 0
0.69254339 4.680553 -3.3259518 0
0.6771124 4.493053 -3.4889538 0
0.67370343 4.430553 -3.5169537 0
0.65772688 4.430553 -4.7689528 0
0.63794255 4.243053 -5.1739516 0
0.64497089 3.930553 -4.2239547 0
0.61642671 3.993053 -6.0169539 0
0.61134034 3.930553 -6.0189528 0
0.62177765 3.680553 -4.5189528 0
0.59250045 3.680553 -6.5179534 0
0.57098466 3.430553 -7.214952 0
0.59008908 3.243053 -5.1709533 0
0.54611397 3.118053 -7.8379531 0
0.542705 3.055553 -7.8549514 0
0.56979769 2.868053 -5.5609527 0
0.52286655 2.868053 -8.4639521 0
0.54151809 2.493053 -6.1469512 0
0.53648579 2.368053 -6.1689544 0
0.49268353 2.555553 -9.1849527 0
0.48759717 2.493053 -9.1819544 0
0.47284511 2.368053 -9.7329493 0
0.46781284 2.243053 -9.7549524 0
0.66546667 1.430553 4.1650453 0
0.51619446 1.993053 -6.5769515 0
0.6603803 1.305553 4.0780473 0
0.65702546 1.243053 3.9930484 0
0.65361649 1.180553 3.8840473 0
0.44456547 1.993053 -10.474954 0
0.6502617 1.118053 3.8010471 0
0.49294707 1.743053 -7.0849547 0
0.66478676 0.99305302 5.1020494 0
0.4879148 1.618053 -7.0979552 0
0.42813599 1.805553 -11.004952 0
0.65438807 0.93055302 4.9820466 0
0.42478114 1.743053 -11.003953 0
0.65103322 0.86805302 4.9530473 0
0.64594686 0.74305302 4.8320451 0
0.64253789 0.68055302 4.7400498 0
0.41125357 1.493053 -11.391953 0
0.6391831 0.61805302 4.6430497 0
0.46063372 1.243053 -7.6289535 0
0.63577414 0.55555302 4.547049 0
0.63074189 0.49305302 4.4630494 0
0.62733293 0.43055302 4.3580461 0
0.6159898 0.36805302 4.273047 0
0.6125809 0.30555302 4.1890473 0
0.60749447 0.18055302 4.0820451 0
0.60413969 0.11805301 3.9930484 0
0.61235392 -0.0069469865 4.9490495 0
0.61693323 -0.069446988 5.0330491 0
0.61190099 -0.13194698 5.0890489 0
0.60849202 -0.19444698 5.0890489 0
0.60513717 -0.25694698 5.0860505 0
0.60005081 -0.38194698 5.1030488 0
0.5966419 -0.44444698 5.1140504 0
0.59160966 -0.50694698 5.110045 0
0.58820069 -0.56944698 5.122046 0
0.58484584 -0.63194698 5.0820451 0
0.57975948 -0.75694698 5.0800462 0
0.57635051 -0.81944698 5.1300492 0
0.57930654 -0.88194698 5.1360459 0
0.57589763 -0.94444698 5.1380448 0
0.57254279 -1.006947 5.1470475 0
0.56745642 -1.131947 5.1560502 0
0.56404746 -1.194447 5.1610475 0
0.56069261 -1.256947 5.1620469 0
0.55560625 -1.319447 5.1620469 0
0.5522514 -1.381947 5.1640458 0
0.53096253 -1.381947 3.5510471 0
0.54716504 -1.506947 5.1650453 0
0.54375613 -1.569447 5.1650453 0
0.54040128 -1.631947 5.1620469 0
0.53531492 -1.694447 5.1620469 0
0.53994834 -1.756947 5.1620469 0
0.53486198 -1.881947 5.1620469 0
0.53145301 -1.944447 5.1660447 0
0.52809823 -2.006947 5.1640458 0
0.5230118 -2.069447 5.1640458 0
0.51965696 -2.131947 5.1640458 0
0.51624805 -2.194447 5.1700501 0
0.25936002 -1.756947 -11.419953 0
0.51116168 -2.319447 5.1640458 0
0.32707301 -1.944447 -6.9809508 0
0.50780684 -2.381947 5.1640458 0
0.50272048 -2.444447 5.1620469 0
0.25282219 -2.006947 -10.885949 0
0.49936563 -2.506947 5.1620469 0
0.31354544 -2.194447 -6.6729522 0
0.49595666 -2.569447 5.1620469 0
0.25063774 -2.194447 -10.574952 0
0.4908703 -2.694447 5.1620469 0
0.48751548 -2.756947 5.1580491 0
0.49041739 -2.819447 5.1560502 0
0.48706254 -2.881947 5.1490464 0
0.45678684 -2.819447 3.5780475 0
0.4836536 -2.944447 5.1500459 0
0.4533779 -2.881947 3.5670459 0
0.30945659 -2.694447 -5.9889541 0
0.47856724 -3.069447 5.148047 0
0.44834563 -3.006947 3.6000507 0
0.4752124 -3.131947 5.1560502 0
0.45292497 -3.069447 3.5940464 0
0.2494508 -2.756947 -9.265954 0
0.29883093 -3.006947 -5.6859527 0
0.45827588 -3.444447 5.160048 0
0.24686754 -3.131947 -8.3219538 0
0.45492104 -3.506947 5.1520448 0
0.4515121 -3.569447 5.1490464 0
0.24468309 -3.319447 -8.0099497 0
0.44647983 -3.631947 5.148047 0
0.27976409 -3.506947 -4.9959502 0
0.24104717 -3.631947 -7.0309539 0
0.40898743 -3.881947 3.5680454 0
0.27595633 -3.756947 -4.7179503 0
0.23769233 -3.694447 -7.0449538 0
0.40390107 -3.944447 3.5810459 0
0.23550788 -3.881947 -6.702951 0
0.40344813 -4.131947 3.6040485 0
0.40003917 -4.194447 3.6050479 0
0.26387921 -4.256947 -3.9739544 0
0.24259031 -4.194447 -5.7379546 0
0.40947792 -4.444447 5.1650453 0
0.26047027 -4.319447 -3.9909527 0
0.40612307 -4.506947 5.1620469 0
0.23414911 -4.381947 -5.4329543 0
0.40103671 -4.569447 5.1590486 0
0.23705103 -4.444447 -5.4179549 0
0.40561604 -4.631947 5.1580491 0
0.25493097 -4.569447 -3.7039502 0
0.4022612 -4.694447 5.148047 0
0.23341511 -4.819447 -4.4629531 0
0.35945648 -4.944447 3.5680454 0
0.35437012 -5.006947 3.5610492 0
0.24893874 -4.944447 -3.1149533 0
0.22955324 -5.006947 -4.1119552 0
0.24240091 -5.194447 -2.9259503 0
0.23200223 -5.256947 -3.1989529 0
0.22696997 -5.381947 -3.2099545 0
0.36167851 -5.444447 5.148047 0
0.33871219 -5.444447 3.565047 0
0.35659212 -5.569447 5.148047 0
0.33530325 -5.506947 3.5940464 0
0.2254644 -5.506947 -2.8559506 0
0.3532373 -5.631947 5.1460481 0
0.33027101 -5.631947 3.5590503 0
0.31429443 -5.631947 2.6840503 0
0.35781664 -5.694447 5.1500459 0
0.32686204 -5.694447 3.2850482 0
0.22501147 -5.694447 -2.4619534 0
0.35273027 -5.756947 5.1570497 0
0.34937543 -5.819447 5.160048 0
0.22455855 -5.819447 -2.2029507 0
0.34428906 -5.944447 5.1620469 0
0.22359858 -6.131947 -1.3429502 0
0.30103141 -6.319447 3.5640476 0
0.21879229 -6.381947 -0.95295078 0
0.29426762 -6.444447 3.5510471 0
0.32013583 -6.506947 5.2980485 0
0.28918126 -6.506947 3.5660465 0
0.22124128 -6.631947 -0.15895206 0
0.21783234 -6.694447 -0.14795047 0
0.21737941 -6.819447 0.26304501 0
0.30157602 -6.881947 5.3010468 0
0.21397047 -6.881947 0.23304623 0
0.29648963 -6.944447 5.3010468 0
0.26743844 -7.069447 3.5540454 0
0.21641946 -7.131947 1.0270449 0
0.21161316 -7.381947 1.4890505 0
0.28077763 -7.381947 5.4090486 0
0.2161925 -7.444447 1.4950472 0
0.27742279 -7.444447 5.410048 0
0.24379224 -7.506947 3.5720508 0
0.2403833 -7.569447 3.5750492 0
0.21233062 -7.631947 2.2130497 0
0.26389521 -7.694447 5.46205 0
0.26048625 -7.756947 5.0920472 0
0.24746571 -7.881947 5.0310502 0
0.21651113 -7.881947 2.7170475 0
0.22808021 -7.944447 3.803046 0
0.25567997 -8.0069466 5.6640458 0
0.22299384 -8.0069466 3.8080509 0
0.21963902 -8.0694466 3.8830478 0
0.21455264 -8.1944466 3.8840473 0
0.21119781 -8.2569466 3.8830478 0
0.21577714 -8.3194466 3.8730457 0
0.21069078 -8.3819466 3.8690479 0
0.20733593 -8.4444466 3.8660495 0
0.23661309 -8.5069466 6.0540452 0
0.20224957 -8.5694466 3.9260471 0
0.19889474 -8.6319466 3.7870471 0
0.23610607 -8.6319466 6.1610475 0
0.19380836 -8.6944466 3.7870471 0
0.23275122 -8.6944466 6.1890473 0
0.18241113 -8.7569466 3.6480472 0
0.22766486 -8.8194466 6.2300477 0
0.20302114 -8.8194466 4.5950456 0
0.22431003 -8.8819466 6.2750459 0
0.18195821 -8.9444466 3.6060474 0
0.22090107 -8.9444466 6.3140473 0
0.22380298 -9.0069466 6.4120469 0
0.22044815 -9.0694466 6.4530473 0
0.2170392 -9.1319466 6.4960465 0
0.21200696 -9.2569466 6.5200486 0
0.208598 -9.3194466 6.509047 0
0.15831202 -9.3819466 3.5720508 0
0.20351164 -9.3819466 6.4960465 0
0.15322566 -9.4444466 3.5620487 0
0.20015679 -9.4444466 6.4820466 0
0.19674785 -9.5069466 6.4670472 0
0.1917156 -9.6319466 6.4560456 0
0.18830664 -9.6944466 6.4490495 0
0.18495181 -9.7569466 6.4350495 0
0.18785372 -9.8194466 6.4260468 0
0.12952535 -9.8819466 3.5370471 0
0.18444477 -9.8819466 6.4120469 0
0.13248137 -10.006947 3.5610492 0
0.18108994 -9.9444466 6.4950471 0
0.17600358 -10.069447 6.4900498 0
0.17264873 -10.131947 6.58705 0
0.13728666 -10.194447 4.523047 0
0.16057162 -10.631947 7.1070466 0
0.15716267 -10.694447 6.9280457 0
0.083403349 -10.881947 3.5730503 0
0.08803679 -10.944447 3.5780475 0
0.084627844 -11.006947 3.5860507 0
0.076412603 -11.319447 4.0370469 0
0.064336479 -11.381947 3.5810459 0
0.05930423 -11.506947 3.5890491 0
0.025711263 -12.256947 3.5870502 0
0.022302317 -12.319447 3.5810459 0
0.017215954 -12.381947 3.579047 0
0.013861113 -12.444447 3.5770481 0
0.0087747434 -12.569447 3.5730503 0
0.0054199114 -12.631947 3.5880497 0
0.0020109653 -12.694447 3.5890491 0
0.04926075 -13.131947 7.2340455 0
0.045851801 -13.194447 7.2450471 0
0.042496961 -13.256947 7.2560487 0
0.037410602 -13.319447 7.259047 0
0.034001652 -13.381947 7.2680497 0
0.030646814 -13.444447 7.2630448 0
1.2177773 10.493053 6.5640473 0
1.2126909 10.368053 6.5460496 0
0.9382025 6.618053 0.33104581 0
0.92512786 6.493053 -0.018952673 0
0.9200415 6.430553 0.064047508 0
0.92294341 6.305553 0.15704983 0
0.90528941 6.305553 -0.41795474 0
0.90193462 6.243053 -0.55695468 0
0.89852566 6.180553 -0.7259534 0
0.89517081 6.118053 -0.86595279 0
0.88477212 6.055553 -1.087953 0
0.88141727 5.993053 -1.2469496 0
0.89421088 5.805553 -0.11295445 0
0.89085603 5.743053 -0.0059521855 0
0.86666524 5.868053 -1.5609525 0
0.88576967 5.618053 -0.14095432 0
0.86325628 5.805553 -1.7289518 0
0.8823607 5.555553 -0.16294986 0
0.85816991 5.680553 -1.8669523 0
0.87732846 5.493053 -0.017953223 0
0.87391949 5.430553 -0.16795474 0
0.85626554 5.368053 -0.89395267 0
0.85458809 5.368053 -1.1889509 0
0.81636268 5.055553 -2.7709515 0
0.79870874 5.055553 -3.5479519 0
0.79535389 4.993053 -3.559953 0
0.78685856 4.805553 -3.8239529 0
0.78981459 4.743053 -3.3269513 0
0.78472823 4.618053 -3.3349545 0
0.77628702 4.493053 -3.4889538 0
0.75499815 4.493053 -4.7569518 0
0.74991179 4.430553 -4.7689528 0
0.7351597 4.305553 -5.1859527 0
0.73007333 4.180553 -5.188951 0
0.7412436 3.993053 -4.2399535 0
0.73783463 3.930553 -4.2539535 0
0.70855749 3.930553 -5.9919524 0
0.72430712 3.680553 -4.5049529 0
0.68536425 3.680553 -6.5179534 0
0.6631695 3.368053 -7.226953 0
0.6902622 3.180553 -5.1819549 0
0.63824469 3.055553 -7.8389525 0
0.6653915 2.868053 -5.5349517 0
0.62013781 2.930553 -8.4769526 0
0.61505145 2.805553 -8.4829493 0
0.63370293 2.430553 -6.1359496 0
0.59185815 2.555553 -9.1629496 0
0.57201976 2.305553 -9.7149515 0
0.61341155 2.055553 -6.589952 0
0.60832518 1.930553 -6.6199508 0
0.75088775 1.243053 3.8830478 0
0.74580139 1.180553 3.8650501 0
0.54374009 1.930553 -10.462953 0
0.74244654 1.118053 3.7830493 0
0.58513194 1.680553 -7.0769515 0
0.75691754 0.93055302 5.0360475 0
0.52830917 1.805553 -10.93995 0
0.75356269 0.86805302 4.9690461 0
0.75015372 0.80555302 4.884047 0
0.74679887 0.74305302 4.7900453 0
0.50847071 1.555553 -11.433953 0
0.74171251 0.68055302 4.7010484 0
0.50338435 1.493053 -11.407952 0
0.73036945 0.61805302 4.610045 0
0.55975425 1.243053 -7.5979552 0
0.72696048 0.55555302 4.5190492 0
0.72360563 0.49305302 4.4260468 0
0.49784505 1.243053 -10.910951 0
0.71851927 0.36805302 4.33705 0
0.7151103 0.30555302 4.2460465 0
0.53488356 0.93055302 -8.0589533 0
0.71175545 0.24305302 4.1360459 0
0.48962981 0.93055302 -10.639955 0
0.70834655 0.18055302 4.0480485 0
0.48096263 0.93055302 -11.45395 0
0.7033143 0.11805301 3.954047 0
0.69191706 0.055553015 3.8840473 0
0.69655049 -0.0069469865 3.914046 0
0.69146413 -0.13194698 3.9970462 0
0.68805516 -0.19444698 3.9700458 0
0.68302292 -0.25694698 3.8540485 0
0.67961395 -0.31944698 3.9410465 0
0.67452759 -0.44444698 4.0510468 0
0.67916107 -0.50694698 4.1590486 0
0.67407471 -0.56944698 4.273047 0
0.67071986 -0.63194698 4.3950486 0
0.67362177 -0.75694698 4.4670472 0
0.67021281 -0.81944698 4.596045 0
0.66518056 -0.88194698 4.8150468 0
0.66808248 -1.006947 4.9490495 0
0.66467351 -1.069447 5.0390458 0
0.65964127 -1.131947 5.1360459 0
0.6562323 -1.194447 5.1510453 0
0.66086578 -1.256947 5.1520448 0
0.63059008 -1.256947 3.62905 0
0.65577936 -1.381947 5.1560502 0
0.62718111 -1.319447 3.5930469 0
0.65237045 -1.444447 5.1560502 0
0.62382627 -1.381947 3.5780475 0
0.64733821 -1.506947 5.1560502 0
0.6187399 -1.444447 3.5860507 0
0.64392924 -1.569447 5.1580491 0
