# .PCD v0.7 - Point Cloud Data file format
VERSION 0.7
FIELDS x y z intensity
SIZE 4 4 4 4
TYPE F F F F
COUNT 1 1 1 1
WIDTH 1286
HEIGHT 1
VIEWPOINT 0 0 0 1 0 0 0
POINTS 1286
DATA ascii
9.9444456 3.58705 -5.914805e-07 0
9.9444456 6.2760448 -7.0902024e-07 0
10.006946 6.7270489 -7.3146617e-07 0
10.069446 6.5230465 -7.2528087e-07 0
10.131946 6.8170452 -7.4086398e-07 0
10.194446 6.7990475 -7.4280922e-07 0
10.256946 6.8560467 -7.4803268e-07 0
10.631946 7.1330471 -7.7653254e-07 0
10.881946 3.5680451 -6.3162918e-07 0
11.006946 3.5680451 -6.3709308e-07 0
11.069446 3.5680451 -6.3982509e-07 0
11.131946 3.5780473 -6.4299428e-07 0
11.194446 3.5800462 -6.458136e-07 0
11.256946 3.5820451 -6.4863292e-07 0
11.319446 4.1060467 -6.742697e-07 0
11.569446 7.2120495 -8.2096528e-07 0
11.694446 7.2170467 -8.2664758e-07 0
11.756946 7.2210445 -8.2955432e-07 0
11.819446 7.2310467 -8.3272352e-07 0
11.881946 7.2310467 -8.3545547e-07 0
11.944446 7.2400494 -8.3858095e-07 0
12.006946 7.2440472 -8.4148763e-07 0
12.069446 7.2470455 -8.4435067e-07 0
12.194446 7.2450466 -8.4972726e-07 0
12.319446 3.5910478 -6.9546979e-07 0
12.256946 7.2450466 -8.5245921e-07 0
12.444446 3.5920472 -7.0097747e-07 0
12.319446 7.2450466 -8.5519116e-07 0
12.506946 3.6060472 -7.0432134e-07 0
12.381946 7.2550488 -8.5836029e-07 0
12.569446 3.5860505 -7.0617921e-07 0
12.444446 7.2550488 -8.610923e-07 0
12.631946 3.6000504 -7.0952314e-07 0
12.569446 7.2590466 -8.6673094e-07 0
12.631946 7.2590466 -8.6946295e-07 0
12.694446 7.2590466 -8.7219485e-07 0
12.756946 7.2580471 -8.7488314e-07 0
12.819446 7.2570477 -8.7757144e-07 0
12.881946 7.2420483 -8.7964776e-07 0
13.006946 7.2060452 -8.8353795e-07 0
13.069446 7.1970501 -8.8587672e-07 0
-10.493052 6.6340466 1.6868256e-07 0
-10.430552 6.5240459 1.7075885e-07 0
-6.7430525 0.74104941 2.6235591e-07 0
-6.6180525 0.3520495 2.7389572e-07 0
-6.4305525 0.022047691 2.8012468e-07 0
-6.3680525 0.1360461 2.7240966e-07 0
-6.2430525 0.20504634 2.6392965e-07 0
-6.2430525 -0.47695282 2.9374078e-07 0
-6.1805525 -0.67195249 2.9953253e-07 0
-5.9930525 0.54104483 2.3831484e-07 0
-6.0555525 -1.0519497 3.1067881e-07 0
-5.9930525 -1.1989529 3.1437256e-07 0
-5.8055525 -0.045953099 2.5577745e-07 0
-5.7430525 -0.021951023 2.5199634e-07 0
-5.8680525 -1.5179532 3.228526e-07 0
-5.6805525 -0.024949376 2.4939541e-07 0
-5.8055525 -1.7099545 3.2851327e-07 0
-5.5555525 -0.035950962 2.444124e-07 0
-5.7430525 -1.8249524 3.3080804e-07 0
-5.4930525 -0.020951573 2.4102479e-07 0
-5.4305525 0.005049401 2.3715629e-07 0
-5.3680525 -0.60195279 2.6095722e-07 0
-5.3680525 -1.1579525 2.8526077e-07 0
-5.3680525 -2.1859522 3.3019603e-07 0
-5.1180525 -2.7649546 3.4457719e-07 0
-4.9930525 -3.5499506 3.7342653e-07 0
-4.8680525 -3.8139505 3.7950244e-07 0
-4.8055525 -3.8129511 3.7672677e-07 0
-4.6805525 -3.3259516 3.4997544e-07 0
-4.4930525 -3.4889536 3.4890456e-07 0
-4.4305525 -3.5169535 3.4739656e-07 0
-4.4305525 -4.7689524 4.0212316e-07 0
-4.2430525 -5.1739511 4.1163031e-07 0
-3.9305527 -4.2239542 3.5644484e-07 0
-3.9930527 -6.0169535 4.3755125e-07 0
-3.9305527 -6.0189524 4.3490667e-07 0
-3.6805527 -4.5189524 3.5841177e-07 0
-3.6805527 -6.5179529 4.4579085e-07 0
-3.4305527 -7.2149515 4.6532978e-07 0
-3.2430527 -5.1709528 3.6778789e-07 0
-3.1180527 -7.8379526 4.7890222e-07 0
-3.0555527 -7.8549509 4.7691327e-07 0
-2.8680527 -5.5609522 3.6844352e-07 0
-2.8680527 -8.4639511 4.9533764e-07 0
-2.4930527 -6.1469507 3.7766657e-07 0
-2.3680527 -6.1689539 3.7316443e-07 0
-2.5555527 -9.1849518 5.1319375e-07 0
-2.4930527 -9.1819534 5.1033072e-07 0
-2.3680527 -9.7329483 5.2895155e-07 0
-2.2430527 -9.7549515 5.2444943e-07 0
-1.4305528 4.1650448 -1.1952844e-07 0
-1.9930528 -6.576951 3.7460677e-07 0
-1.3055528 4.0780468 -1.2118954e-07 0
-1.2430528 3.9930482 -1.2020611e-07 0
-1.1805528 3.884047 -1.1817347e-07 0
-1.9930528 -10.474953 5.4499384e-07 0
-1.1180528 3.8010468 -1.1727739e-07 0
-1.7430528 -7.0849543 3.8588445e-07 0
-0.99305296 5.1020489 -1.7960991e-07 0
-1.6180528 -7.0979548 3.8098881e-07 0
-1.8055528 -11.004951 5.5996492e-07 0
-0.93055296 4.9820461 -1.7709638e-07 0
-1.7430528 -11.003952 5.5718931e-07 0
-0.86805296 4.9530468 -1.7856074e-07 0
-0.74305296 4.8320446 -1.787355e-07 0
-0.68055296 4.7400494 -1.7744621e-07 0
-1.4930528 -11.391953 5.6322148e-07 0
-0.61805296 4.6430492 -1.7593817e-07 0
-1.2430528 -7.628953 3.8780769e-07 0
-0.55555296 4.5470486 -1.7447381e-07 0
-0.49305299 4.4630489 -1.7353403e-07 0
-0.43055299 4.3580456 -1.7167615e-07 0
-0.36805299 4.2730465 -1.7069269e-07 0
-0.30555299 4.1890469 -1.6975291e-07 0
-0.180553 4.0820446 -1.7053961e-07 0
-0.118053 3.9930482 -1.6938142e-07 0
0.0069469861 4.949049 -2.1663347e-07 0
0.069446981 5.0330486 -2.2303716e-07 0
0.13194697 5.0890484 -2.2821696e-07 0
0.19444697 5.0890484 -2.3094893e-07 0
0.25694695 5.08605 -2.3354981e-07 0
0.38194695 5.1030483 -2.3975676e-07 0
0.44444695 5.1140499 -2.4296961e-07 0
0.50694692 5.1100445 -2.4552651e-07 0
0.56944692 5.1220455 -2.4878304e-07 0
0.63194692 5.0820446 -2.4976652e-07 0
0.75694692 5.0800457 -2.5514305e-07 0
0.81944692 5.1300488 -2.6006072e-07 0
0.88194692 5.1360455 -2.630548e-07 0
0.94444692 5.1380444 -2.6587412e-07 0
1.0069469 5.147047 -2.6899963e-07 0
1.1319469 5.1560497 -2.7485706e-07 0
1.1944469 5.161047 -2.7780746e-07 0
1.2569469 5.1620464 -2.8058312e-07 0
1.3194469 5.1620464 -2.8331507e-07 0
1.3819469 5.1640453 -2.8613442e-07 0
1.3819469 3.5510468 -2.1562801e-07 0
1.5069469 5.1650448 -2.9164204e-07 0
1.5694469 5.1650448 -2.9437399e-07 0
1.6319469 5.1620464 -2.9697489e-07 0
1.6944469 5.1620464 -2.9970687e-07 0
1.7569469 5.1620464 -3.0243882e-07 0
1.8819469 5.1620464 -3.0790272e-07 0
1.9444469 5.1660442 -3.1080947e-07 0
2.0069468 5.1640453 -3.1345402e-07 0
2.0694468 5.1640453 -3.16186e-07 0
2.1319468 5.1640453 -3.1891796e-07 0
2.1944468 5.1700497 -3.2191238e-07 0
1.7569469 -11.419952 4.2238338e-07 0
2.3194468 5.1640453 -3.2711384e-07 0
1.9444469 -6.9809504 2.2015256e-07 0
2.3819468 5.1640453 -3.2984582e-07 0
2.4444468 5.1620464 -3.324904e-07 0
2.0069468 -10.885948 3.8811345e-07 0
2.5069468 5.1620464 -3.3522235e-07 0
2.1944468 -6.6729517 1.9576166e-07 0
2.5694468 5.1620464 -3.379543e-07 0
2.1944468 -10.574951 3.6632346e-07 0
2.6944468 5.1620464 -3.4341824e-07 0
2.7569468 5.1580486 -3.4597545e-07 0
2.8194468 5.1560497 -3.4862003e-07 0
2.8819468 5.1490459 -3.5104586e-07 0
2.8194468 3.5780473 -2.7964336e-07 0
2.9444468 5.1500454 -3.5382149e-07 0
2.8819468 3.5670457 -2.8189442e-07 0
2.6944468 -5.9889536 1.4400746e-07 0
3.0694468 5.1480465 -3.5919805e-07 0
3.0069468 3.6000504 -2.8880103e-07 0
3.1319468 5.1560497 -3.6227982e-07 0
3.0694468 3.5940461 -2.9127054e-07 0
2.7569468 -9.2659531 2.8451768e-07 0
3.0069468 -5.6859522 1.1710303e-07 0
3.4444468 5.1600475 -3.761144e-07 0
3.1319468 -8.3219528 2.2686237e-07 0
3.5069468 5.1520443 -3.7849654e-07 0
3.5694468 5.1490459 -3.8109744e-07 0
3.3194468 -8.0099487 2.0502834e-07 0
3.6319468 5.1480465 -3.837857e-07 0
3.5069468 -4.9959497 6.5086368e-08 0
3.6319468 -7.0309534 1.4857528e-07 0
3.8819468 3.5680451 -3.2564949e-07 0
3.7569468 -4.7179499 4.2006761e-08 0
3.6944468 -7.0449533 1.4645529e-07 0
3.9444468 3.5810456 -3.2894974e-07 0
3.8819468 -6.7029505 1.2330999e-07 0
4.1319466 3.6040483 -3.381511e-07 0
4.1944466 3.6050477 -3.4092676e-07 0
4.2569466 -3.9739542 -1.2370009e-08 0
4.1944466 -5.7379541 6.7468832e-08 0
4.4444466 5.1650448 -4.2004422e-07 0
4.3194466 -3.9909525 -1.4358946e-08 0
4.5069466 5.1620464 -4.2264514e-07 0
4.3819466 -5.4329538 4.5940965e-08 0
4.5694466 5.1590481 -4.2524601e-07 0
4.4444466 -5.4179544 4.2553353e-08 0
4.6319466 5.1580486 -4.2793431e-07 0
4.5694466 -3.7039499 -3.7832081e-08 0
4.6944466 5.1480465 -4.3022905e-07 0
4.8194466 -4.4629526 -1.558287e-08 0
4.9444466 3.5680451 -3.7209284e-07 0
5.0069466 3.561049 -3.74519e-07 0
4.9444466 -3.114953 -7.9969723e-08 0
5.0069466 -4.1119547 -3.912136e-08 0
5.1944466 -2.9259501 -9.9159152e-08 0
5.2569466 -3.1989527 -8.9957794e-08 0
5.3819466 -3.2099543 -9.4940816e-08 0
5.4444466 5.1480465 -4.6301261e-07 0
5.4444466 3.5650468 -3.9381749e-07 0
5.5694466 5.1480465 -4.6847651e-07 0
5.5069466 3.5940461 -3.9781705e-07 0
5.5069466 -2.8559504 -1.1587875e-07 0
5.6319466 5.1460476 -4.7112113e-07 0
5.6319466 3.5590501 -4.0175127e-07 0
5.6319466 2.6840501 -3.635038e-07 0
5.6944466 5.1500454 -4.7402781e-07 0
5.6944466 3.285048 -3.9250619e-07 0
5.6944466 -2.4619532 -1.4129679e-07 0
5.7569466 5.1570492 -4.770659e-07 0
5.8194466 5.1600475 -4.7992899e-07 0
5.8194466 -2.2029505 -1.5808209e-07 0
5.9444466 5.1620464 -4.8548026e-07 0
6.1319466 -1.3429501 -2.0933369e-07 0
6.3194466 3.5640473 -4.3202127e-07 0
6.3819466 -0.95295072 -2.3730897e-07 0
6.4444466 3.5510468 -4.3691691e-07 0
6.5069466 5.298048 -5.1601273e-07 0
6.5069466 3.5660462 -4.4030452e-07 0
6.6319466 -0.15895204 -2.8294357e-07 0
6.6944466 -0.14795046 -2.8615645e-07 0
6.8194466 0.26304498 -3.0958554e-07 0
6.8819466 5.3010464 -5.3253558e-07 0
6.8819466 0.23304622 -3.1100623e-07 0
6.9444466 5.3010464 -5.3526753e-07 0
7.0694466 3.5540452 -4.6436759e-07 0
7.1319466 1.0270448 -3.5664084e-07 0
7.3819466 1.4890504 -3.8776363e-07 0
7.3819466 5.4090481 -5.5911215e-07 0
7.4444466 1.4950471 -3.9075769e-07 0
7.4444466 5.4100475 -5.6188782e-07 0
7.5069466 3.5720506 -4.8427836e-07 0
7.5694466 3.5750489 -4.8714139e-07 0
7.6319466 2.2130494 -4.3033845e-07 0
7.6944466 5.4620495 -5.7508873e-07 0
7.7569466 5.0920467 -5.6164737e-07 0
7.8819466 5.0310497 -5.6444503e-07 0
7.8819466 2.7170472 -4.6329677e-07 0
7.9444466 3.8030457 -5.1349923e-07 0
8.0069456 5.6640453 -5.9757804e-07 0
8.0069456 3.8080506 -5.1644997e-07 0
8.0694456 3.8830476 -5.2246014e-07 0
8.1944456 3.884047 -5.279677e-07 0
8.2569456 3.8830476 -5.30656e-07 0
8.3194456 3.8730454 -5.3295076e-07 0
8.3819456 3.8690476 -5.3550798e-07 0
8.4444456 3.8660493 -5.3810885e-07 0
8.5069456 6.0540447 -6.364811e-07 0
8.5694456 3.9260468 -5.4619534e-07 0
8.6319456 3.7870469 -5.4285147e-07 0
8.6319456 6.161047 -6.4662231e-07 0
8.6944456 3.7870469 -5.4558336e-07 0
8.6944456 6.1890469 -6.5057816e-07 0
8.7569456 3.648047 -5.4223949e-07 0
8.8194456 6.2300472 -6.5783422e-07 0
8.8194456 4.5950451 -5.8636601e-07 0
8.8819456 6.2750454 -6.6253318e-07 0
8.9444456 3.6060472 -5.4859947e-07 0
8.9444456 6.3140469 -6.6696992e-07 0
9.0069456 6.4120464 -6.739856e-07 0
9.0694456 6.4530468 -6.7850976e-07 0
9.1319456 6.4960461 -6.8312124e-07 0
9.2569456 6.5200481 -6.8963436e-07 0
9.3194456 6.5090466 -6.9188542e-07 0
9.3819456 3.5720506 -5.6623719e-07 0
9.3819456 6.4960461 -6.9404905e-07 0
9.4444456 3.5620484 -5.6853196e-07 0
9.4444456 6.4820461 -6.9616908e-07 0
9.5069456 6.4670467 -6.9824546e-07 0
9.6319456 6.4560452 -7.0322847e-07 0
9.6944456 6.449049 -7.056546e-07 0
9.7569456 6.4350491 -7.0777463e-07 0
9.8194456 6.4260464 -7.1011306e-07 0
9.8819456 3.5370469 -5.8656281e-07 0
9.8819456 6.4120464 -7.1223303e-07 0
10.006946 3.561049 -5.9307592e-07 0
9.9444456 6.4950466 -7.1859307e-07 0
10.069446 6.4900494 -7.2383853e-07 0
10.131946 6.5870495 -7.3081054e-07 0
10.194446 4.5230465 -6.4332204e-07 0
10.631946 7.1070461 -7.7539602e-07 0
10.694446 6.9280453 -7.7030359e-07 0
10.881946 3.57305 -6.3184797e-07 0
10.944446 3.5780473 -6.3479837e-07 0
11.006946 3.5860505 -6.3788013e-07 0
11.319446 4.0370464 -6.7125359e-07 0
11.381946 3.5810456 -6.5405311e-07 0
11.506946 3.5890489 -6.5986694e-07 0
12.256946 3.58705 -6.9256311e-07 0
12.319446 3.5810456 -6.9503255e-07 0
12.381946 3.5790467 -6.9767714e-07 0
12.444446 3.5770478 -7.0032178e-07 0
12.569446 3.57305 -7.0561094e-07 0
12.631946 3.5880494 -7.0899853e-07 0
12.694446 3.5890489 -7.1177419e-07 0
13.131946 7.234045 -8.9022575e-07 0
13.194446 7.2450466 -8.9343865e-07 0
13.256946 7.2560482 -8.966515e-07 0
13.319446 7.2590466 -8.9951448e-07 0
13.381946 7.2680492 -9.0263995e-07 0
13.444446 7.2630444 -9.0515312e-07 0
-10.493052 6.5640469 1.7174233e-07 0
-10.368052 6.5460491 1.6706511e-07 0
-6.6180525 0.33104578 2.7481383e-07 0
-6.4930525 -0.018952671 2.8464879e-07 0
-6.4305525 0.0640475 2.7828881e-07 0
-6.3055525 0.15704982 2.6875961e-07 0
-6.3055525 -0.41795471 2.9389386e-07 0
-6.2430525 -0.55695462 2.9723779e-07 0
-6.1805525 -0.72595334 3.0189298e-07 0
-6.1180525 -0.86595273 3.0528059e-07 0
-6.0555525 -1.0879529 3.1225255e-07 0
-5.9930525 -1.2469494 3.1647056e-07 0
-5.8055525 -0.11295444 2.5870617e-07 0
-5.7430525 -0.005952185 2.51297e-07 0
-5.8680525 -1.5609524 3.2473216e-07 0
-5.6180525 -0.1409543 2.5173421e-07 0
-5.8055525 -1.7289517 3.2934366e-07 0
-5.5555525 -0.16294985 2.499637e-07 0
-5.6805525 -1.8669522 3.2991193e-07 0
-5.4930525 -0.017953221 2.4089371e-07 0
-5.4305525 -0.16795473 2.4471854e-07 0
-5.3680525 -0.89395261 2.7372096e-07 0
-5.3680525 -1.1889508 2.8661572e-07 0
-5.0555525 -2.7709513 3.4210737e-07 0
-5.0555525 -3.5479517 3.7607114e-07 0
-4.9930525 -3.5599527 3.7386377e-07 0
-4.8055525 -3.8239527 3.7720767e-07 0
-4.7430525 -3.326951 3.5275107e-07 0
-4.6180525 -3.3349543 3.4763701e-07 0
-4.4930525 -3.4889536 3.4890456e-07 0
-4.4930525 -4.7569513 4.0433054e-07 0
-4.4305525 -4.7689524 4.0212316e-07 0
-4.3055525 -5.1859522 4.1488687e-07 0
-4.1805525 -5.1889505 4.0955399e-07 0
-3.9930527 -4.239953 3.5987611e-07 0
-3.9305527 -4.253953 3.5775611e-07 0
-3.9305527 -5.9919519 4.3372648e-07 0
-3.6805527 -4.5049524 3.5779982e-07 0
-3.6805527 -6.5179529 4.4579085e-07 0
-3.3680527 -7.2269526 4.631224e-07 0
-3.1805527 -5.1819544 3.6553681e-07 0
-3.0555527 -7.8389521 4.7621393e-07 0
-2.8680527 -5.5349512 3.67307e-07 0
-2.9305527 -8.4769516 4.9863786e-07 0
-2.8055527 -8.4829483 4.9343606e-07 0
-2.4305527 -6.1359491 3.7445372e-07 0
-2.5555527 -9.1629486 5.1223196e-07 0
-2.3055527 -9.7149506 5.2543294e-07 0
-2.0555527 -6.5899515 3.7790699e-07 0
-1.9305528 -6.6199503 3.7375438e-07 0
-1.2430528 3.8830476 -1.1539782e-07 0
-1.1805528 3.8650498 -1.1734309e-07 0
-1.9305528 -10.462952 5.4173734e-07 0
-1.1180528 3.7830491 -1.1649067e-07 0
-1.6805528 -7.076951 3.8280268e-07 0
-0.93055296 5.036047 -1.7945683e-07 0
-1.8055528 -10.939949 5.571236e-07 0
-0.86805296 4.9690456 -1.7926008e-07 0
-0.80555296 4.8840466 -1.7827661e-07 0
-0.74305296 4.7900448 -1.7689963e-07 0
-1.5555528 -11.433952 5.677893e-07 0
-0.68055296 4.7010479 -1.7574141e-07 0
-1.4930528 -11.407951 5.6392082e-07 0
-0.61805296 4.6100445 -1.7449548e-07 0
-1.2430528 -7.5979548 3.8645271e-07 0
-0.55555296 4.5190487 -1.732499e-07 0
-0.49305299 4.4260464 -1.7191661e-07 0
-1.2430528 -10.91095 5.3126831e-07 0
-0.36805299 4.3370495 -1.7349035e-07 0
-0.30555299 4.2460461 -1.7224443e-07 0
-0.93055296 -8.0589523 3.9294375e-07 0
-0.243053 4.1360455 -1.7016809e-07 0
-0.93055296 -10.639954 5.057629e-07 0
-0.180553 4.048048 -1.6905358e-07 0
-0.93055296 -11.453949 5.4134381e-07 0
-0.118053 3.9540467 -1.6767662e-07 0
-0.055553012 3.884047 -1.6734879e-07 0
0.0069469861 3.9140458 -1.7139203e-07 0
0.13194697 3.997046 -1.8048402e-07 0
0.19444697 3.9700456 -1.8203576e-07 0
0.25694695 3.8540483 -1.7969731e-07 0
0.31944695 3.9410462 -1.8623207e-07 0
0.44444695 4.0510464 -1.9650425e-07 0
0.50694692 4.1590481 -2.0395711e-07 0
0.56944692 4.2730465 -2.1167212e-07 0
0.63194692 4.3950481 -2.1973693e-07 0
0.75694692 4.4670467 -2.2834801e-07 0
0.81944692 4.5960445 -2.3671866e-07 0
0.88194692 4.8150463 -2.4902349e-07 0
1.0069469 4.949049 -2.6034485e-07 0
1.0694469 5.0390453 -2.6701068e-07 0
1.1319469 5.1360455 -2.7398266e-07 0
1.1944469 5.1510448 -2.7737028e-07 0
1.2569469 5.1520443 -2.8014591e-07 0
1.2569469 3.6290498 -2.135737e-07 0
1.3819469 5.1560497 -2.8578492e-07 0
1.3194469 3.5930467 -2.1473193e-07 0
1.4444469 5.1560497 -2.8851687e-07 0
1.3819469 3.5780473 -2.1680825e-07 0
1.5069469 5.1560497 -2.9124885e-07 0
1.4444469 3.5860505 -2.1989003e-07 0
1.5694469 5.1580486 -2.9406817e-07 0
1.5069469 3.5510468 -2.2109194e-07 0
1.6319469 5.1620464 -2.9697489e-07 0
1.6319469 3.5510468 -2.2655585e-07 0
1.7569469 5.1630459 -3.024825e-07 0
1.8194469 5.1650448 -3.0530182e-07 0
1.8819469 5.1640453 -3.0799009e-07 0
1.9444469 5.1640453 -3.1072207e-07 0
2.0069468 5.1660442 -3.1354142e-07 0
2.1319468 5.1660442 -3.1900532e-07 0
2.1944468 5.1710491 -3.2195607e-07 0
2.2569468 5.173048 -3.2477541e-07 0
2.3194468 5.1710491 -3.2741997e-07 0
2.3819468 5.1720486 -3.3019563e-07 0
2.5069468 5.1630459 -3.3526604e-07 0
2.0069468 -10.88295 3.879824e-07 0
2.5694468 5.161047 -3.3791062e-07 0
2.1944468 -6.6919489 1.9659205e-07 0
2.6319468 5.1580486 -3.4051152e-07 0
2.1944468 -10.600952 3.6746002e-07 0
2.6944468 5.1520443 -3.4298102e-07 0
2.7569468 5.1600475 -3.4606282e-07 0
2.8194468 5.1560497 -3.4862003e-07 0
2.9444468 5.1570492 -3.5412765e-07 0
2.8819468 3.5780473 -2.8237531e-07 0
3.0069468 5.1480465 -3.564661e-07 0
2.9444468 3.6090455 -2.8646224e-07 0
2.6944468 -6.0009546 1.4453204e-07 0
3.0694468 5.1480465 -3.5919805e-07 0
3.0694468 3.5820451 -2.9074596e-07 0
2.7569468 -9.2689514 2.8464876e-07 0
3.1319468 5.1460476 -3.6184264e-07 0
3.1944468 5.1460476 -3.6457459e-07 0
2.9444468 -5.715951 1.2114629e-07 0
3.3194468 5.1500454 -3.7021329e-07 0
3.0694468 -5.6869516 1.1441475e-07 0
3.3819468 5.1560497 -3.7320768e-07 0
3.0694468 -8.3109512 2.2911343e-07 0
3.4444468 5.1600475 -3.761144e-07 0
3.1319468 -8.3799515 2.2939756e-07 0
3.5069468 5.1570492 -3.787153e-07 0
3.5694468 5.1560497 -3.8140357e-07 0
3.3194468 -7.9769526 2.0358603e-07 0
3.4444468 -5.0049524 6.8211861e-08 0
3.5694468 -5.0179529 6.3316207e-08 0
3.6944468 -7.0379496 1.4614913e-07 0
3.9444468 3.5760484 -3.2873129e-07 0
3.7569468 -4.6989527 4.1176364e-08 0
4.0069466 3.5790467 -3.3159432e-07 0
3.8194468 -6.6819544 1.2512419e-07 0
3.9444468 -6.7129526 1.210152e-07 0
4.1944466 3.5800462 -3.3983389e-07 0
4.2569466 3.5820451 -3.4265321e-07 0
4.1944466 -5.7699518 6.8867493e-08 0
4.2569466 -4.0189524 -1.040307e-08 0
4.2569466 -5.7739496 6.6310307e-08 0
4.5069466 5.1630459 -4.226888e-07 0
4.5694466 5.161047 -4.2533338e-07 0
4.4444466 -5.4359522 4.3340066e-08 0
4.6319466 5.1620464 -4.2810905e-07 0
4.6944466 5.1580486 -4.3066626e-07 0
4.5694466 -3.7239542 -3.6957672e-08 0
4.7569466 5.1460476 -4.3287366e-07 0
4.7569466 -4.4889536 -1.1714363e-08 0
5.0069466 3.5520463 -3.7412548e-07 0
5.0694466 3.5510468 -3.7681377e-07 0
5.0069466 -4.1019526 -3.9558572e-08 0
5.1319466 -2.9349527 -9.6033659e-08 0
5.2569466 -2.9359522 -1.0145391e-07 0
5.3194466 -3.2099543 -9.2208865e-08 0
5.4444466 3.5600495 -3.9359907e-07 0
5.5069466 5.1480465 -4.6574456e-07 0
5.5069466 3.5680451 -3.9668049e-07 0
5.6319466 5.1420498 -4.7094636e-07 0
5.5694466 3.5620484 -3.9915034e-07 0
5.5694466 0.36704889 -2.5949248e-07 0
5.6944466 5.1380444 -4.7350323e-07 0
5.6944466 3.2960496 -3.9298709e-07 0
5.7569466 5.1520443 -4.7684716e-07 0
5.7569466 3.2690492 -3.945388e-07 0
5.8194466 5.1200466 -4.7818048e-07 0
5.7569466 -2.2089548 -1.5508766e-07 0
5.8819466 5.147047 -4.8209267e-07 0
6.0069466 5.123045 -4.8650742e-07 0
6.0694466 -1.3379529 -2.0682018e-07 0
6.1944466 -1.321954 -2.1298344e-07 0
6.2569466 3.5650468 -4.29333e-07 0
6.3819466 3.5620484 -4.3466585e-07 0
6.3194466 -0.95295072 -2.3457702e-07 0
6.3819466 -0.96795011 -2.3665332e-07 0
6.5069466 5.2730465 -5.1491986e-07 0
6.5069466 3.5520463 -4.3969257e-07 0
6.5694466 5.2740459 -5.1769553e-07 0
6.6319466 -0.15995149 -2.8289989e-07 0
6.8819466 5.3090496 -5.3288539e-07 0
6.8819466 0.27304712 -3.1275474e-07 0
6.9444466 5.3100491 -5.35661e-07 0
7.0069466 3.5510468 -4.6150458e-07 0
7.1319466 3.5590501 -4.6731833e-07 0
7.0694466 0.98104727 -3.5189828e-07 0
7.1944466 1.0370469 -3.5981003e-07 0
7.3819466 1.5080476 -3.88594e-07 0
7.4444466 5.4120464 -5.6197518e-07 0
7.5069466 3.5670457 -4.8405957e-07 0
7.5694466 5.4120464 -5.6743909e-07 0
7.5694466 3.5740495 -4.8709774e-07 0
7.6319466 2.1930451 -4.2946405e-07 0
7.6944466 5.4260464 -5.7351497e-07 0
7.6944466 2.2170472 -4.3324516e-07 0
7.7569466 5.4400463 -5.7685889e-07 0
7.8194466 5.0930462 -5.6442298e-07 0
7.9444466 3.8130479 -5.1393641e-07 0
8.0069456 5.6420498 -5.9661659e-07 0
8.0069456 3.7890458 -5.1561921e-07 0
8.0694456 5.6420498 -5.9934854e-07 0
8.0694456 3.8430467 -5.2071164e-07 0
8.1319456 3.898047 -5.2584772e-07 0
8.1944456 3.8820481 -5.2788039e-07 0
8.3194456 3.872046 -5.3290705e-07 0
8.3194456 3.8700471 -5.3281968e-07 0
8.4444456 3.8570466 -5.3771532e-07 0
8.5069456 6.0400448 -6.3586918e-07 0
8.5069456 3.9070497 -5.4263302e-07 0
8.5694456 6.0510464 -6.3908203e-07 0
8.5694456 3.8380494 -5.4234886e-07 0
8.6319456 6.1480465 -6.4605399e-07 0
8.6319456 3.6710496 -5.3778103e-07 0
8.6944456 6.1620464 -6.4939792e-07 0
8.7569456 3.7300477 -5.4582387e-07 0
8.8194456 6.1720486 -6.5529906e-07 0
8.8194456 3.547049 -5.405567e-07 0
8.8819456 6.2730465 -6.6244581e-07 0
8.8819456 4.6200466 -5.9019089e-07 0
8.8819456 3.5310502 -5.4258931e-07 0
8.9444456 6.3110485 -6.668389e-07 0
9.0069456 6.3560467 -6.7153775e-07 0
9.0694456 6.4000454 -6.7619294e-07 0
9.1319456 4.9430447 -6.1523741e-07 0
9.1319456 6.4470501 -6.8097961e-07 0
9.1944456 6.4950466 -6.8580948e-07 0
9.3194456 6.4810467 -6.9066152e-07 0
9.3194456 3.5740495 -5.6359261e-07 0
9.3819456 6.4820461 -6.9343713e-07 0
9.3819456 3.5910478 -5.6706756e-07 0
9.4444456 5.4920483 -6.5289493e-07 0
9.5069456 3.5600495 -5.7117654e-07 0
9.5694456 5.5590496 -6.6128757e-07 0
9.6319456 5.6360455 -6.6738517e-07 0
9.6944456 6.4290447 -7.0478018e-07 0
9.7569456 6.4260464 -7.073811e-07 0
9.8194456 6.4130459 -7.0954479e-07 0
9.8819456 6.3180447 -7.0812411e-07 0
9.9444456 6.423048 -7.1544594e-07 0
10.006946 6.4620495 -7.1988268e-07 0
10.069446 3.5590501 -5.9572051e-07 0
10.131946 6.4830456 -7.2626437e-07 0
10.131946 4.4830456 -6.3884158e-07 0
10.194446 4.5240459 -6.4336575e-07 0
10.694446 7.1060467 -7.7808431e-07 0
10.756946 3.5500474 -6.2537856e-07 0
10.819446 3.5510468 -6.2815423e-07 0
10.944446 3.5640473 -6.3418639e-07 0
11.006946 3.5640473 -6.3691834e-07 0
11.319446 4.074049 -6.7287101e-07 0
11.444446 3.5920472 -6.5726601e-07 0
11.506946 3.6040483 -6.6052257e-07 0
12.194446 3.5760484 -6.8935026e-07 0
12.256946 3.5800462 -6.9225695e-07 0
12.319446 3.5780473 -6.9490153e-07 0
12.444446 3.5860505 -7.007153e-07 0
12.569446 3.5890489 -7.0631029e-07 0
12.631946 3.596045 -7.0934806e-07 0
12.694446 3.7740464 -7.1986068e-07 0
12.756946 3.9810472 -7.3164091e-07 0
-6.1180525 -0.86195493 3.0510583e-07 0
-5.9305525 -1.210954 3.1216518e-07 0
-5.6805525 -1.7249539 3.2370497e-07 0
-5.6180525 -2.0369501 3.346108e-07 0
-5.5555525 -2.1349497 3.3616254e-07 0
-5.4305525 -2.2089548 3.3393349e-07 0
-5.3680525 -2.2829523 3.3443607e-07 0
-5.3055525 -2.2829523 3.3170411e-07 0
-5.2430525 -2.5109491 3.3893821e-07 0
-5.1805525 -2.6579523 3.4263195e-07 0
-5.1180525 -2.7459497 3.4374648e-07 0
-5.0555525 -2.8519526 3.4564806e-07 0
-4.9305525 -2.9349527 3.4381219e-07 0
-4.8680525 -3.0359507 3.4549498e-07 0
-4.8055525 -3.1259546 3.4669722e-07 0
-4.7430525 -3.2119532 3.4772438e-07 0
-4.6805525 -3.3229532 3.4984436e-07 0
-4.6180525 -3.4119501 3.510026e-07 0
-4.4930525 -3.4389505 3.4671888e-07 0
-4.4305525 -3.5879526 3.5050002e-07 0
-4.4930525 -4.8659525 4.0909512e-07 0
-4.3680525 -4.8849497 4.0446159e-07 0
-4.3055525 -5.0739527 4.0999123e-07 0
-3.8680527 -4.302949 3.5716585e-07 0
-3.9305527 -6.0889521 4.3796649e-07 0
-3.7430527 -4.4529505 3.5825869e-07 0
-3.6805527 -6.4219522 4.4159452e-07 0
-3.3055527 -7.3359537 4.6515504e-07 0
-3.1180527 -5.2549524 3.6599567e-07 0
-3.1180527 -7.7519541 4.7514311e-07 0
-2.9305527 -5.4769526 3.6750373e-07 0
-2.8680527 -8.5719528 5.0005855e-07 0
-2.7430527 -8.59095 4.9542501e-07 0
-2.3680527 -6.1999521 3.745194e-07 0
-2.0555527 -6.4909525 3.7357961e-07 0
-2.2430527 -9.7879486 5.2589178e-07 0
-1.9305528 -10.393951 5.3872122e-07 0
-1.6180528 -7.1609507 3.8374245e-07 0
-1.5555528 -7.1759501 3.8166613e-07 0
-1.7430528 -11.058952 5.5959345e-07 0
-1.4930528 -11.397949 5.6348358e-07 0
-1.2430528 -7.5189524 3.8299942e-07 0
-1.2430528 -10.963951 5.3358508e-07 0
-0.86805296 -8.1319504 3.9340264e-07 0
-0.74305296 -8.1579514 3.8907527e-07 0
-0.86805296 -10.593948 5.0102e-07 0
-0.86805296 -11.41095 5.3673222e-07 0
-0.80555296 -11.421951 5.3448116e-07 0
-0.43055299 -8.5049515 3.905833e-07 0
-0.55555296 -10.06395 4.6419319e-07 0
-0.180553 -9.6849518 4.3123492e-07 0
-0.055553012 -8.9949493 3.9561002e-07 0
0.069446981 -11.380951 4.9444157e-07 0
0.13194697 -11.398949 4.9249633e-07 0
0.31944695 -8.9489517 3.7720764e-07 0
0.44444695 -9.642952 4.0207942e-07 0
0.69444692 -8.5779495 3.4459885e-07 0
0.75694692 -8.5659485 3.4134229e-07 0
0.69444692 -10.087952 4.1060312e-07 0
0.75694692 -10.103951 4.0857049e-07 0
1.1319469 -8.0439529 3.0213337e-07 0
1.0694469 -11.405952 4.5182298e-07 0
1.1319469 -11.405952 4.49091e-07 0
1.1944469 -11.407951 4.4644648e-07 0
1.4444469 -7.6209497 2.699835e-07 0
1.5069469 -7.6179514 2.6712047e-07 0
1.3819469 -10.964951 4.1888637e-07 0
1.5069469 -10.972954 4.1377231e-07 0
1.8819469 -7.0469522 2.2576955e-07 0
1.6944469 -11.440948 4.2603313e-07 0
1.8194469 -11.404953 4.1899577e-07 0
2.3819468 3.6790452 -2.6493439e-07 0
2.0069468 -10.949951 3.9091111e-07 0
2.5069468 3.8090501 -2.7608101e-07 0
2.5694468 3.8820481 -2.8200381e-07 0
2.2569468 -6.6069498 1.9014468e-07 0
2.6319468 4.0510464 -2.9212291e-07 0
2.2569468 -10.490952 3.5991977e-07 0
2.6944468 4.1210461 -2.9791465e-07 0
2.7569468 4.248045 -3.0619793e-07 0
2.8819468 4.3570461 -3.1642645e-07 0
2.6319468 -6.0879526 1.5106681e-07 0
2.5069468 -9.6719513 3.1319226e-07 0
2.9444468 4.4700451 -3.2409775e-07 0
2.6944468 -6.0609522 1.4715459e-07 0
3.0069468 4.5750484 -3.3141953e-07 0
3.0694468 4.6650448 -3.3808539e-07 0
2.7569468 -9.1909485 2.8123912e-07 0
3.1944468 4.7870464 -3.4888217e-07 0
3.2569468 4.8950481 -3.5633502e-07 0
3.0694468 -5.6169519 1.1135498e-07 0
3.3194468 4.9760494 -3.6260769e-07 0
3.1319468 -5.6159525 1.0857934e-07 0
3.0069468 -8.3919525 2.3538605e-07 0
3.3819468 5.0730495 -3.6957965e-07 0
3.1319468 -8.4339523 2.3175801e-07 0
3.5069468 5.1380444 -3.7788459e-07 0
3.4444468 3.648047 -3.1002276e-07 0
3.5069468 3.7450471 -3.1699471e-07 0
3.6319468 3.8320451 -3.2626144e-07 0
3.6944468 3.9260468 -3.3310238e-07 0
3.7569468 4.0540447 -3.4142931e-07 0
3.8194468 4.1340466 -3.4765824e-07 0
3.8819468 4.2560482 -3.5572307e-07 0
4.0069466 4.3450451 -3.650772e-07 0
4.0694466 4.4290447 -3.7148087e-07 0
4.1319466 4.522047 -3.7827812e-07 0
4.1944466 4.6360455 -3.8599308e-07 0
4.3194466 4.7450466 -3.9622159e-07 0
4.3819466 4.8700466 -4.0441751e-07 0
4.4444466 5.0400448 -4.1458031e-07 0
4.5069466 5.0640469 -4.1836142e-07 0
4.5694466 5.1380444 -4.2432794e-07 0
4.5694466 3.6730485 -3.6029093e-07 0
4.4444466 -5.288949 3.6914344e-08 0
4.6944466 5.1430492 -4.3001063e-07 0
4.6319466 3.7310472 -3.6555809e-07 0
4.7569466 5.1430492 -4.3274258e-07 0
4.7569466 3.7060456 -3.6992915e-07 0
4.8194466 5.1440487 -4.3551825e-07 0
4.8194466 3.6350465 -3.6955765e-07 0
4.8819466 5.1430492 -4.3820651e-07 0
4.8819466 3.6230454 -3.7176505e-07 0
4.9444466 5.1450481 -4.4102583e-07 0
4.9444466 3.6140504 -3.7410382e-07 0
5.0694466 5.1480465 -4.4662085e-07 0
5.1319466 5.1480465 -4.493528e-07 0
5.1944466 5.1480465 -4.5208475e-07 0
5.2569466 5.1500454 -4.5490407e-07 0
5.3194466 5.1560497 -4.5789852e-07 0
5.4444466 5.1560497 -4.6336243e-07 0
5.5069466 5.1600475 -4.6626914e-07 0
5.5694466 5.1590481 -4.6895741e-07 0
5.6319466 5.1620464 -4.7182044e-07 0
5.6944466 5.1600475 -4.7446503e-07 0
5.7569466 5.1640453 -4.7737171e-07 0
5.8819466 5.1740475 -4.8327286e-07 0
5.9444466 5.187048 -4.8657307e-07 0
6.0069466 5.2030468 -4.9000437e-07 0
6.0694466 5.2150478 -4.9326093e-07 0
6.1319466 5.2260494 -4.9647377e-07 0
6.2569466 5.2330456 -5.0224355e-07 0
6.3194466 5.2450466 -5.0550011e-07 0
6.3194466 3.5650468 -4.3206495e-07 0
6.3819466 5.2580471 -5.0880033e-07 0
6.3819466 3.5510468 -4.3418495e-07 0
6.4444466 5.2690487 -5.1201317e-07 0
6.5069466 5.2770443 -5.150946e-07 0
6.6319466 5.2870464 -5.2099574e-07 0
6.6319466 -0.30294922 -2.7664927e-07 0
6.6944466 5.3010464 -5.2433967e-07 0
6.7569466 5.3130474 -5.2759623e-07 0
6.8194466 5.3250484 -5.3085273e-07 0
6.8819466 5.3320446 -5.3389056e-07 0
6.9444466 0.40904871 -3.2143151e-07 0
7.0069466 5.3420467 -5.397917e-07 0
7.0069466 0.39804712 -3.236826e-07 0
7.0694466 5.3560467 -5.4313557e-07 0
7.0694466 0.89804709 -3.4827025e-07 0
7.1319466 5.3690472 -5.4643579e-07 0
7.1944466 5.3650494 -5.4899306e-07 0
7.1944466 3.5750489 -4.7074963e-07 0
7.2569466 5.3660488 -5.5176866e-07 0
7.3194466 3.5770478 -4.763009e-07 0
7.3194466 5.3560467 -5.5406343e-07 0
7.3819466 3.5760484 -4.7898919e-07 0
7.4444466 1.6580491 -3.9788273e-07 0
7.5694466 5.4390469 -5.6861933e-07 0
7.6319466 2.0530457 -4.2334449e-07 0
7.6319466 5.4470501 -5.7170109e-07 0
7.6944466 5.4530468 -5.7469521e-07 0
7.8194466 5.3600445 -5.7609384e-07 0
7.8819466 5.562048 -5.8765568e-07 0
7.9444466 5.5640469 -5.90475e-07 0
7.9444466 3.898047 -5.1765187e-07 0
8.0069456 2.8700471 -4.754485e-07 0
8.0069456 5.6620464 -5.9749067e-07 0
8.0694456 3.0940461 -4.8797176e-07 0
8.0694456 5.7010479 -6.0192747e-07 0
8.1319456 3.6060472 -5.1308399e-07 0
8.1319456 5.7310467 -6.0597068e-07 0
8.1944456 3.6780457 -5.1896313e-07 0
8.2569456 5.8230495 -6.154562e-07 0
8.2569456 3.7720475 -5.2580401e-07 0
8.3194456 5.8510494 -6.1941205e-07 0
8.3194456 3.6890473 -5.2490793e-07 0
8.3819456 5.9080486 -6.246355e-07 0
8.3819456 3.8420472 -5.3432774e-07 0
8.4444456 5.9390469 -6.2872243e-07 0
8.5069456 3.8500504 -5.4014151e-07 0
8.5069456 5.9380474 -6.3141073e-07 0
8.6319456 5.8380489 -6.325036e-07 0
8.6319456 3.6060472 -5.3493966e-07 0
8.6944456 5.8810482 -6.3711514e-07 0
8.6944456 3.5810456 -5.365788e-07 0
8.7569456 5.8560467 -6.3875422e-07 0
8.8194456 3.5750489 -5.4178059e-07 0
8.8194456 5.859045 -6.4161725e-07 0
8.8819456 3.5640473 -5.4403165e-07 0
8.8819456 5.8370495 -6.4338775e-07 0
8.9444456 3.561049 -5.4663258e-07 0
8.9444456 5.8010464 -6.4454593e-07 0
9.0069456 3.5630479 -5.494519e-07 0
9.0694456 4.9620495 -6.1333617e-07 0
9.1319456 5.7680492 -6.512995e-07 0
9.1944456 3.5500474 -5.5707949e-07 0
9.1944456 5.7450466 -6.5302595e-07 0
9.2569456 5.7450466 -6.5575796e-07 0
9.3194456 5.7210445 -6.5744075e-07 0
9.4444456 5.6920452 -6.6163705e-07 0
9.5069456 5.7310467 -6.6607384e-07 0
9.5694456 5.7130489 -6.6801908e-07 0
9.6319456 5.7680492 -6.7315523e-07 0
9.9444456 6.1650448 -7.041682e-07 0
10.131946 3.5760484 -5.9919552e-07 0
10.194446 4.536047 -6.438903e-07 0
10.319446 3.5780473 -6.0747874e-07 0
10.381946 3.5780473 -6.1021069e-07 0
10.444446 3.5780473 -6.129427e-07 0
10.506946 3.5820451 -6.1584939e-07 0
10.631946 3.5780473 -6.2113855e-07 0
10.694446 3.5810456 -6.2400159e-07 0
11.319446 4.1100445 -6.7444444e-07 0
11.444446 3.9800477 -6.7422604e-07 0
11.506946 3.5860505 -6.5973586e-07 0
11.569446 3.5920472 -6.6272992e-07 0
11.631946 3.5910478 -6.6541821e-07 0
11.756946 3.5920472 -6.7092583e-07 0
11.819446 3.5940461 -6.7374515e-07 0
11.881946 3.5950456 -6.7652081e-07 0
11.944446 3.5930467 -6.791654e-07 0
12.006946 3.596045 -6.8202843e-07 0
12.069446 3.5940461 -6.8467295e-07 0
12.194446 3.6040483 -6.9057415e-07 0
12.256946 3.6060472 -6.9339347e-07 0
12.381946 3.6040483 -6.9877001e-07 0
12.444446 3.6040483 -7.0150202e-07 0
12.569446 3.6000504 -7.0679118e-07 0
12.631946 3.6050477 -7.0974158e-07 0
12.694446 3.6020494 -7.1234246e-07 0
-5.9305525 -1.2409527 3.1347648e-07 0
-5.7430525 -1.632951 3.2241539e-07 0
-5.4930525 -2.3539515 3.4300345e-07 0
-5.3680525 -2.2969522 3.3504801e-07 0
-5.3055525 -2.2969522 3.3231606e-07 0
-5.2430525 -2.3139505 3.3032711e-07 0
-5.1805525 -2.7129526 3.4503609e-07 0
-5.1180525 -2.7579508 3.4427106e-07 0
-5.0555525 -2.7949533 3.4315653e-07 0
-4.9930525 -2.9119501 3.4553864e-07 0
-4.8680525 -2.9969492 3.4379016e-07 0
-4.8055525 -3.0859537 3.4494872e-07 0
-4.7430525 -3.1859522 3.4658783e-07 0
-4.6805525 -3.265954 3.4735285e-07 0
-4.6180525 -3.3659525 3.4899196e-07 0
-4.5555525 -3.4529505 3.5006281e-07 0
-4.4930525 -3.5509501 3.5161452e-07 0
-4.3680525 -3.6299524 3.4960391e-07 0
-4.3055525 -3.7669535 3.5286047e-07 0
-4.2430525 -3.7969522 3.5143978e-07 0
-4.1805525 -3.9359522 3.5478371e-07 0
-3.8680527 -4.3419504 3.5887064e-07 0
-3.8055527 -4.3799524 3.5779982e-07 0
-3.9305527 -6.1159525 4.3914673e-07 0
-3.7430527 -4.4079523 3.5629176e-07 0
-3.8055527 -6.1019526 4.330708e-07 0
-3.6805527 -6.3799524 4.3975865e-07 0
-3.3680527 -7.3569498 4.6880476e-07 0
-3.1180527 -5.2809534 3.671322e-07 0
-3.0555527 -5.2849512 3.6457502e-07 0
-3.1180527 -7.7309504 4.7422498e-07 0
-2.9305527 -5.4539499 3.6649826e-07 0
-2.7430527 -8.5779495 4.9485675e-07 0
-2.3680527 -6.2289515 3.7578701e-07 0
-2.5555527 -9.0569534 5.0759877e-07 0
-2.3055527 -6.2269526 3.7296766e-07 0
-2.0555527 -6.5009546 3.7401685e-07 0
-2.2430527 -9.8279495 5.2764028e-07 0
-2.1805527 -9.8629532 5.2643838e-07 0
-1.9305528 -10.371948 5.3775943e-07 0
-1.5555528 -7.1729517 3.8153507e-07 0
-1.7430528 -11.060951 5.5968081e-07 0
-1.6805528 -11.09095 5.5826013e-07 0
-1.4930528 -11.421951 5.6453274e-07 0
-1.2430528 -7.5169535 3.8291205e-07 0
-1.4305528 -11.407951 5.6118887e-07 0
-1.2430528 -10.975952 5.3410963e-07 0
-0.80555296 -8.1299515 3.905833e-07 0
-0.86805296 -10.601952 5.0136981e-07 0
-0.80555296 -10.59095 4.9815696e-07 0
-0.74305296 -11.407951 5.3113729e-07 0
-0.68055296 -11.407951 5.2840534e-07 0
-0.49305299 -8.5109482 3.9357741e-07 0
-0.55555296 -10.087952 4.6524235e-07 0
-0.055553012 -9.0069504 3.961346e-07 0
0.13194697 -11.393951 4.9227788e-07 0
0.31944695 -8.9909515 3.7904351e-07 0
0.38194695 -8.9939499 3.7644261e-07 0
0.44444695 -9.628952 4.0146745e-07 0
0.75694692 -8.5519485 3.4073037e-07 0
0.75694692 -10.097954 4.0830838e-07 0
1.0694469 -8.0779495 3.0635138e-07 0
1.0694469 -11.41095 4.5204143e-07 0
1.1319469 -11.407951 4.4917843e-07 0
1.1944469 -11.407951 4.4644648e-07 0
1.5069469 -7.5939493 2.6607131e-07 0
1.5069469 -10.967949 4.1355352e-07 0
1.8819469 -7.0609522 2.263815e-07 0
1.8194469 -11.421951 4.1973877e-07 0
1.9444469 -10.978951 3.9491067e-07 0
2.2569468 -6.5929499 1.895327e-07 0
2.3819468 -6.5979548 1.8428756e-07 0
2.2569468 -10.476952 3.5930782e-07 0
2.5069468 -9.6959534 3.1424145e-07 0
2.6944468 -6.0789499 1.4794131e-07 0
2.7569468 -9.1859512 2.810207e-07 0
2.8819468 -9.1889496 2.7568782e-07 0
3.1319468 -5.5939493 1.0761755e-07 0
3.1319468 -8.4209518 2.3118974e-07 0
3.5069468 3.7310472 -3.163828e-07 0
3.5694468 3.7450471 -3.1972667e-07 0
3.4444468 -5.076951 7.1359011e-08 0
3.3819468 -7.8809519 1.9665775e-07 0
3.6944468 3.8870454 -3.3139756e-07 0
3.7569468 4.010046 -3.3950607e-07 0
3.8194468 4.1060467 -3.4643432e-07 0
3.6319468 -7.1359491 1.5316479e-07 0
3.8819468 4.2030468 -3.5340631e-07 0
4.0069466 4.298048 -3.6302288e-07 0
4.0694466 4.3980465 -3.7012589e-07 0
3.9444468 -4.5739527 2.7516563e-08 0
4.1319466 4.5060482 -3.7757877e-07 0
3.9444468 -6.5719538 1.1485196e-07 0
4.1944466 4.6070461 -3.847255e-07 0
4.2569466 4.7050457 -3.9174114e-07 0
4.3819466 4.7870464 -4.0078942e-07 0
4.2569466 -4.1179514 -6.0756804e-09 0
4.4444466 4.8990459 -4.0841707e-07 0
4.5069466 5.010046 -4.1600097e-07 0
4.5694466 5.0520458 -4.2056882e-07 0
4.4444466 -5.2689524 3.6040262e-08 0
4.6319466 3.6930451 -3.6389696e-07 0
4.5694466 -5.2699518 3.0620029e-08 0
4.7569466 5.0880489 -4.3033845e-07 0
4.8194466 3.9120469 -3.8166573e-07 0
4.8819466 3.9950471 -3.8802574e-07 0
4.9444466 4.1010494 -3.953912e-07 0
5.0069466 4.2000484 -4.0245055e-07 0
5.0694466 4.2910442 -4.0916007e-07 0
5.1944466 4.4120464 -4.1991316e-07 0
5.2569466 4.4890499 -4.2601107e-07 0
5.3194466 4.5940456 -4.3333253e-07 0
5.3819466 4.7150478 -4.4135368e-07 0
5.5069466 4.8090496 -4.5092654e-07 0
5.5694466 4.9510479 -4.5986542e-07 0
5.6319466 5.0590496 -4.6731833e-07 0
5.6944466 5.1300488 -4.7315373e-07 0
5.6944466 3.686049 -4.1003449e-07 0
5.7569466 5.1360455 -4.7614782e-07 0
5.7569466 3.686049 -4.1276644e-07 0
5.8194466 5.1480465 -4.7940438e-07 0
5.8194466 3.7020478 -4.1619776e-07 0
5.9444466 5.1620464 -4.8548026e-07 0
6.0069466 5.1830502 -4.8913034e-07 0
6.0069466 3.6230454 -4.2094035e-07 0
6.0694466 5.1920452 -4.9225548e-07 0
6.0694466 3.5760484 -4.2161798e-07 0
6.1319466 5.2070446 -4.9564306e-07 0
6.1319466 3.58705 -4.2483083e-07 0
6.1944466 5.22505 -4.9916207e-07 0
6.3194466 5.2400494 -5.0528166e-07 0
6.3819466 5.2490444 -5.084068e-07 0
6.4444466 5.2630444 -5.1175073e-07 0
6.5069466 5.2750454 -5.1500729e-07 0
6.5694466 5.2910442 -5.1843853e-07 0
6.6944466 5.3020458 -5.2438338e-07 0
6.7569466 5.3170452 -5.2777096e-07 0
6.8194466 5.3280468 -5.3098381e-07 0
6.8819466 5.3380489 -5.34153e-07 0
6.9444466 5.35005 -5.3740951e-07 0
7.0694466 5.3560467 -5.4313557e-07 0
7.1319466 5.3650494 -5.4626105e-07 0
7.1944466 5.373045 -5.4934253e-07 0
7.2569466 5.3840466 -5.5255538e-07 0
7.3194466 5.397047 -5.5585559e-07 0
7.3819466 3.5640473 -4.7846459e-07 0
7.3819466 5.4070492 -5.5902478e-07 0
7.5069466 5.4130459 -5.6475085e-07 0
7.5069466 1.6370454 -3.996966e-07 0
7.5694466 5.4280453 -5.6813843e-07 0
7.5694466 2.0370469 -4.1991319e-07 0
7.6319466 5.437048 -5.7126391e-07 0
7.6944466 5.4410458 -5.741706e-07 0
7.7569466 5.4400463 -5.7685889e-07 0
7.8819466 5.5390453 -5.8665023e-07 0
7.9444466 5.574049 -5.9091224e-07 0
8.0069456 5.6210461 -5.9569845e-07 0
8.0694456 5.6760464 -6.008346e-07 0
8.1319456 5.7150478 -6.0527134e-07 0
8.1944456 3.6660447 -5.1843858e-07 0
8.1944456 5.7540493 -6.0970814e-07 0
8.2569456 3.773047 -5.2584772e-07 0
8.3194456 5.786047 -6.1657067e-07 0
8.3194456 3.7450471 -5.2735572e-07 0
8.3819456 3.8300462 -5.3380313e-07 0
8.5069456 3.8090501 -5.383493e-07 0
8.5694456 3.5780473 -5.3098381e-07 0
8.5694456 5.8450451 -6.3007747e-07 0
8.6944456 5.72505 -6.302962e-07 0
8.6944456 3.5360475 -5.3461184e-07 0
8.7569456 5.5920467 -6.2721443e-07 0
8.7569456 3.5640473 -5.3856775e-07 0
8.8819456 3.5800462 -5.4473105e-07 0
8.9444456 3.58705 -5.477691e-07 0
9.0069456 3.58705 -5.5050106e-07 0
9.0694456 4.8790493 -6.0970814e-07 0
9.1319456 4.9540462 -6.1571831e-07 0
9.2569456 3.4950471 -5.5740736e-07 0
9.2569456 5.1760464 -6.3088618e-07 0
9.3194456 5.2910442 -6.3864485e-07 0
9.4444456 5.437048 -6.5049079e-07 0
9.5069456 5.5370464 -6.5759377e-07 0
9.5694456 5.6590481 -6.6565866e-07 0
10.006946 6.1340466 -7.0554518e-07 0
10.069446 3.5410447 -5.9493345e-07 0
10.131946 3.5530457 -5.9819001e-07 0
10.194446 4.5600491 -6.4493952e-07 0
10.319446 3.5760484 -6.0739137e-07 0
10.381946 3.5780473 -6.1021069e-07 0
10.444446 3.5820451 -6.1311744e-07 0
10.506946 3.5900483 -6.161992e-07 0
10.569446 3.5880494 -6.1884379e-07 0
10.694446 3.58705 -6.2426403e-07 0
10.756946 3.5900483 -6.2712706e-07 0
10.819446 3.5750489 -6.2920338e-07 0
10.881946 3.5920472 -6.3267839e-07 0
10.944446 3.5820451 -6.3497311e-07 0
11.069446 3.5810456 -6.4039341e-07 0
11.131946 3.5920472 -6.436062e-07 0
11.194446 3.5920472 -6.4633821e-07 0
11.256946 3.6010499 -6.4946363e-07 0
11.319446 3.6040483 -6.5232666e-07 0
11.381946 3.9530473 -6.7031385e-07 0
11.506946 3.6030488 -6.6047892e-07 0
11.569446 3.5930467 -6.6277363e-07 0
11.631946 3.596045 -6.6563666e-07 0
11.694446 3.6010499 -6.6858735e-07 0
11.819446 3.6020494 -6.7409502e-07 0
11.881946 3.6020494 -6.7682697e-07 0
11.944446 3.6010499 -6.7951521e-07 0
12.006946 3.5940461 -6.8194106e-07 0
12.069446 3.6000504 -6.8493546e-07 0
12.194446 3.6010499 -6.9044307e-07 0
12.256946 3.6060472 -6.9339347e-07 0
12.319446 3.6060472 -6.9612543e-07 0
12.381946 3.610045 -6.9903211e-07 0
12.444446 3.6180482 -7.0211399e-07 0
12.569446 3.6200471 -7.0766527e-07 0
12.631946 3.6190476 -7.103535e-07 0
12.694446 3.622046 -7.1321654e-07 0
-5.8055525 -1.6349499 3.2523471e-07 0
-5.5555525 -2.0329523 3.3170411e-07 0
-5.4930525 -2.3379526 3.4230411e-07 0
-5.4305525 -2.3109522 3.3839194e-07 0
-5.3680525 -2.2819529 3.3439238e-07 0
-5.3055525 -2.265954 3.3096109e-07 0
-5.2430525 -2.6849527 3.4654414e-07 0
-5.1805525 -2.6869516 3.4389956e-07 0
-5.0555525 -2.7849512 3.4271932e-07 0
-4.9930525 -2.8799524 3.4414001e-07 0
-4.9305525 -2.9679499 3.4525453e-07 0
-4.8680525 -3.0469522 3.4597588e-07 0
-4.8055525 -3.1489496 3.4770235e-07 0
-4.7430525 -3.2409525 3.4899196e-07 0
-4.6180525 -3.3249521 3.4719977e-07 0
-4.5555525 -3.3969507 3.4761496e-07 0
-4.4930525 -3.5059519 3.4964762e-07 0
-4.4305525 -3.6439524 3.5294784e-07 0
-4.3680525 -3.6729517 3.5148349e-07 0
-4.3055525 -3.7749491 3.5320994e-07 0
-4.2430525 -3.9259501 3.5707848e-07 0
-3.9305527 -4.3239527 3.608159e-07 0
-3.8680527 -4.3379526 3.586959e-07 0
-3.7430527 -4.4349527 3.57472e-07 0
-3.8680527 -6.1189508 4.365458e-07 0
-3.7430527 -6.3799524 4.424906e-07 0
-3.3680527 -7.3389521 4.6801804e-07 0
-3.3055527 -7.3519526 4.6585436e-07 0
-3.1180527 -5.2809534 3.671322e-07 0
-3.1805527 -7.753953 4.7796243e-07 0
-2.9305527 -5.4629526 3.6689175e-07 0
-3.1180527 -7.727952 4.7409395e-07 0
-2.8680527 -5.4749537 3.6468441e-07 0
-2.8055527 -8.5629501 4.9693307e-07 0
-2.3680527 -6.2299509 3.7583067e-07 0
-2.4930527 -9.0879517 5.062218e-07 0
-2.1180527 -6.5179529 3.774918e-07 0
-2.3055527 -9.8239517 5.301975e-07 0
-2.0555527 -6.5049524 3.7419159e-07 0
-2.2430527 -9.8239517 5.2746555e-07 0
-1.9930528 -10.365952 5.4022928e-07 0
-1.9305528 -10.390953 5.3859014e-07 0
-1.6180528 -7.1679544 3.8404858e-07 0
-1.6805528 -11.078949 5.5773558e-07 0
-1.5555528 -11.421951 5.6726469e-07 0
-1.3055528 -7.5289545 3.8616858e-07 0
-1.4930528 -11.40995 5.6400819e-07 0
-1.3055528 -11.001953 5.3797822e-07 0
-1.1805528 -10.990952 5.3203337e-07 0
-0.80555296 -8.1299515 3.905833e-07 0
-0.86805296 -10.587952 5.0075784e-07 0
-0.80555296 -11.41095 5.3400026e-07 0
-0.74305296 -11.421951 5.3174921e-07 0
-0.43055299 -8.5329514 3.9180722e-07 0
-0.118053 -9.0159531 3.992601e-07 0
-0.055553012 -9.0189514 3.9665917e-07 0
0.13194697 -11.417953 4.9332704e-07 0
0.19444697 -11.431953 4.91207e-07 0
0.38194695 -8.9789505 3.7578698e-07 0
0.44444695 -9.6409531 4.0199203e-07 0
0.69444692 -8.552948 3.43506e-07 0
0.75694692 -10.097954 4.0830838e-07 0
0.81944692 -10.115952 4.0636311e-07 0
1.0694469 -8.0609512 3.0560835e-07 0
1.0069469 -11.407951 4.5464236e-07 0
1.1319469 -11.407951 4.4917843e-07 0
1.1944469 -10.575951 4.1007854e-07 0
1.5069469 -7.5849543 2.6567812e-07 0
1.5694469 -7.5739527 2.6246528e-07 0
1.4444469 -10.976952 4.1667903e-07 0
1.8194469 -7.0939493 2.305558e-07 0
1.8819469 -7.0849543 2.2743066e-07 0
1.7569469 -11.407951 4.2185883e-07 0
2.0694468 -11.009949 3.9080174e-07 0
2.3194468 -6.5989542 1.8706321e-07 0
2.1944468 -10.490952 3.6265172e-07 0
2.3194468 -10.496948 3.5744995e-07 0
2.5069468 -9.6859512 3.1380424e-07 0
2.6319468 -6.0869532 1.5102313e-07 0
2.5694468 -9.6859512 3.1107228e-07 0
2.7569468 -9.1859512 2.810207e-07 0
2.8194468 -9.1759491 2.7785154e-07 0
3.0694468 -5.5929499 1.1030582e-07 0
3.1319468 -5.5849543 1.0722437e-07 0
3.0694468 -8.4209518 2.339217e-07 0
3.3819468 -5.1019526 7.5183834e-08 0
3.3194468 -7.8859491 1.9960815e-07 0
3.5069468 -5.0929499 6.9326376e-08 0
3.6319468 -7.1559534 1.5403921e-07 0
3.6944468 -7.1449518 1.5082635e-07 0
3.9444468 4.2430477 -3.5788676e-07 0
4.0069466 4.3700466 -3.6617001e-07 0
3.8819468 -4.576951 3.0379596e-08 0
4.0694466 4.437048 -3.7183071e-07 0
3.9444468 -6.5609522 1.1437106e-07 0
4.1944466 4.5410442 -3.8184044e-07 0
4.2569466 4.6780453 -3.905609e-07 0
4.3194466 4.7870464 -3.9805747e-07 0
4.1944466 -4.1019526 -4.0430734e-09 0
4.1944466 -5.8769541 7.3544712e-08 0
4.3819466 4.873045 -4.0454856e-07 0
4.5069466 4.9670467 -4.1412142e-07 0
4.5694466 5.0530453 -4.2061248e-07 0
4.6319466 3.69805 -3.6411575e-07 0
4.5069466 -5.2689524 3.3308311e-08 0
4.6944466 3.773047 -3.7012592e-07 0
4.7569466 3.872046 -3.7718524e-07 0
4.6944466 -3.5619516 -4.9502944e-08 0
4.8194466 3.9760499 -3.8446339e-07 0
4.9444466 4.0870495 -3.9477925e-07 0
5.0069466 4.1890469 -4.0196966e-07 0
4.9444466 -3.2449503 -7.4287357e-08 0
5.0694466 4.2870464 -4.0898533e-07 0
5.1319466 4.373045 -4.1547639e-07 0
5.0694466 -4.0209513 -4.5831214e-08 0
5.1944466 4.4670467 -4.223173e-07 0
5.3194466 4.5750484 -4.3250213e-07 0
5.3819466 4.6830502 -4.3995499e-07 0
5.4444466 4.7820492 -4.4701434e-07 0
5.5069466 4.8810482 -4.540737e-07 0
5.5694466 4.9960461 -4.6183237e-07 0
5.6944466 5.1040478 -4.7201721e-07 0
5.7569466 5.1060467 -4.7483653e-07 0
5.8194466 5.1200466 -4.7818048e-07 0
5.8819466 5.1220455 -4.809998e-07 0
5.9444466 5.1580486 -4.8530546e-07 0
5.9444466 3.6850495 -4.2091864e-07 0
6.0694466 5.1910458 -4.9221177e-07 0
6.0694466 3.6080461 -4.2301667e-07 0
6.1319466 5.2030468 -4.9546827e-07 0
6.1319466 3.6010499 -4.2544281e-07 0
6.1944466 5.2210445 -4.9898699e-07 0
6.1944466 3.7310472 -4.3385714e-07 0
6.2569466 5.2320461 -5.0219984e-07 0
6.3194466 5.2430477 -5.0541269e-07 0
6.4444466 5.2570477 -5.1148857e-07 0
6.5069466 5.2680492 -5.1470147e-07 0
6.5694466 5.2830486 -5.1808905e-07 0
6.6319466 5.2870464 -5.2099574e-07 0
6.6944466 5.3010464 -5.2433967e-07 0
6.8194466 5.3150463 -5.3041555e-07 0
6.8819466 5.3280468 -5.3371582e-07 0
6.9444466 5.3420467 -5.3705969e-07 0
7.0069466 5.3460445 -5.3996644e-07 0
7.0694466 5.3580456 -5.4322294e-07 0
7.1319466 5.3700466 -5.464795e-07 0
7.2569466 5.3840466 -5.5255538e-07 0
7.3194466 5.3940487 -5.5572457e-07 0
7.3819466 5.4020443 -5.5880605e-07 0
7.4444466 5.4150448 -5.6210627e-07 0
7.5069466 5.4260464 -5.6531906e-07 0
7.6319466 5.4350491 -5.7117654e-07 0
7.6944466 5.4560452 -5.7482623e-07 0
7.7569466 5.449049 -5.7725242e-07 0
7.7569466 3.910048 -5.0998057e-07 0
7.8194466 5.5110455 -5.8269433e-07 0
7.8819466 5.5600491 -5.8756837e-07 0
7.9444466 5.6040478 -5.922235e-07 0
8.0694456 5.6450481 -5.9947962e-07 0
8.1319456 5.6660442 -6.0312937e-07 0
8.1319456 3.634047 -5.1430789e-07 0
8.1944456 5.7460461 -6.0935827e-07 0
8.1944456 3.7040467 -5.2009966e-07 0
8.3194456 3.7390504 -5.2709362e-07 0
8.3819456 3.8310456 -5.3384684e-07 0
8.4444456 3.8170457 -5.3596682e-07 0
8.5069456 3.5320497 -5.2624125e-07 0
8.6319456 5.7310467 -6.2782635e-07 0
8.6944456 3.509047 -5.334316e-07 0
8.6944456 5.6060467 -6.250944e-07 0
8.7569456 3.5400453 -5.3751859e-07 0
8.8194456 5.4780483 -6.2496338e-07 0
8.8194456 3.6050477 -5.4309191e-07 0
8.8819456 3.5820451 -5.4481836e-07 0
9.0069456 3.5720506 -5.4984542e-07 0
9.0069456 4.8780499 -6.0693247e-07 0
9.1319456 4.9500484 -6.1554357e-07 0
9.2569456 5.147047 -6.2961857e-07 0
9.3194456 5.2750454 -6.379455e-07 0
9.3819456 5.4220486 -6.4710315e-07 0
9.4444456 5.5170498 -6.5398774e-07 0
9.5069456 5.6630459 -6.6310145e-07 0
9.6319456 3.5400453 -5.7576608e-07 0
9.7569456 3.5530457 -5.8179825e-07 0
9.8194456 3.5640473 -5.8501109e-07 0
9.8819456 3.5670457 -5.8787413e-07 0
9.9444456 3.5680451 -5.9064979e-07 0
9.9444456 6.1460476 -7.0333783e-07 0
10.006946 3.5950456 -5.9456193e-07 0
10.131946 3.5780473 -5.9928288e-07 0
10.194446 3.5750489 -6.0188376e-07 0
10.256946 3.5770478 -6.0470308e-07 0
10.319446 3.57305 -6.0726029e-07 0
10.444446 3.5780473 -6.129427e-07 0
10.506946 3.5790467 -6.1571831e-07 0
10.569446 3.5780473 -6.184066e-07 0
10.631946 3.5780473 -6.2113855e-07 0
10.694446 3.5790467 -6.2391422e-07 0
10.819446 3.5800462 -6.2942183e-07 0
10.881946 3.5940461 -6.327657e-07 0
10.944446 3.58705 -6.351919e-07 0
11.006946 3.5930467 -6.3818595e-07 0
11.069446 3.6030488 -6.413552e-07 0
11.194446 3.6090455 -6.4708121e-07 0
11.256946 3.6200471 -6.5029406e-07 0
11.319446 3.622046 -6.5311337e-07 0
11.381946 4.0370464 -6.739856e-07 0
11.444446 3.6030488 -6.5774691e-07 0
11.569446 3.5920472 -6.6272992e-07 0
11.631946 3.5950456 -6.6559295e-07 0
11.694446 3.6060472 -6.688058e-07 0
11.756946 3.6040483 -6.7145044e-07 0
11.819446 3.6060472 -6.7426976e-07 0
11.944446 3.6060472 -6.7973366e-07 0
12.006946 3.6070466 -6.8250932e-07 0
12.069446 3.610045 -6.853723e-07 0
12.131946 3.6160493 -6.8836675e-07 0
12.194446 3.6230454 -6.9140458e-07 0
12.319446 3.6320481 -6.9726195e-07 0
12.381946 3.634047 -7.0008127e-07 0
12.444446 3.6330476 -7.0276963e-07 0
12.506946 3.634047 -7.0554529e-07 0
12.569446 3.6310487 -7.0814616e-07 0
12.694446 3.6450486 -7.1422198e-07 0
-5.3055525 -2.7829523 3.5355981e-07 0
-4.9930525 -3.4909525 3.7084766e-07 0
-4.7430525 -3.8809519 3.7696722e-07 0
-4.6180525 -4.3379526 3.9147943e-07 0
-4.5555525 -4.3569498 3.8957785e-07 0
-4.4930525 -4.3799524 3.878514e-07 0
-4.4305525 -4.3949518 3.8577508e-07 0
-4.3055525 -4.4119501 3.8105418e-07 0
-4.2430525 -4.5369501 3.8378613e-07 0
-4.1805525 -4.5449533 3.8140399e-07 0
-4.1180525 -4.5489511 3.7884678e-07 0
-3.9930527 -4.3969507 3.667387e-07 0
-3.9305527 -4.3519526 3.6203983e-07 0
-3.9930527 -5.8009501 4.2810944e-07 0
-3.8680527 -4.3839502 3.6070651e-07 0
-3.9305527 -5.977952 4.3311451e-07 0
-3.7430527 -4.4739542 3.5917679e-07 0
