# .PCD v0.7 - Point Cloud Data file format
VERSION 0.7
FIELDS x y z intensity
SIZE 4 4 4 4
TYPE F F F F
COUNT 1 1 1 1
WIDTH 1249
HEIGHT 1
VIEWPOINT 0 0 0 1 0 0 0
POINTS 1249
DATA ascii
-1.6165553 -10.210939 4.4633433e-07 0
-1.6226991 -10.129938 4.4279366e-07 0
-1.6282889 -10.044939 4.3907824e-07 0
-1.6622599 -9.9669361 4.3566862e-07 0
-1.6687773 -9.8499393 4.3055454e-07 0
-1.7073389 -12.388941 5.4153782e-07 0
-1.6710044 -9.8099384 4.2880603e-07 0
-1.7048891 -12.388941 5.4153782e-07 0
0.31867048 3.10906 -1.3590133e-07 0
0.31644335 3.0760629 -1.3445899e-07 0
0.28416014 3.1080606 -1.3585765e-07 0
0.28155941 3.1080606 -1.3585765e-07 0
0.27933231 3.1190622 -1.3633854e-07 0
0.24704909 3.1210611 -1.3642591e-07 0
0.23869292 3.0800607 -1.3463374e-07 0
0.21032633 3.0930612 -1.35202e-07 0
0.2077256 3.0940607 -1.3524568e-07 0
0.20158187 3.1020639 -1.3559551e-07 0
0.17022623 3.10906 -1.3590133e-07 0
0.13034879 3.0800607 -1.3463374e-07 0
0.12774804 3.0910623 -1.3511462e-07 0
0.11232813 8.2500591 -3.6062153e-07 0
0.096392408 3.111059 -1.359887e-07 0
0.10618439 8.2570629 -3.6092769e-07 0
0.096392408 3.6920602 -1.6138507e-07 0
0.10358365 8.255064 -3.6084032e-07 0
0.072228007 8.2480602 -3.6053416e-07 0
0.069073327 8.2480602 -3.6053416e-07 0
0.06647259 8.2470608 -3.6049047e-07 0
0.060882799 8.2460613 -3.6044679e-07 0
0.028973212 8.2450619 -3.6040311e-07 0
0.026372483 8.2460613 -3.6044679e-07 0
0.020782692 8.2500591 -3.6062153e-07 0
-0.0055224262 8.1320629 -3.5546375e-07 0
-0.0077495351 8.1330624 -3.5550744e-07 0
-0.013339322 8.1360607 -3.5563852e-07 0
-0.015566435 8.1360607 -3.5563852e-07 0
-0.047849648 8.1350613 -3.5559484e-07 0
-0.055191852 3.0760629 -1.3445899e-07 0
-0.050450385 8.1390591 -3.5576957e-07 0
-0.057418965 3.0940607 -1.3524568e-07 0
-0.055666544 8.1360607 -3.5563852e-07 0
-0.059194863 8.1510601 -3.5629415e-07 0
-0.087561451 8.0630627 -3.5244767e-07 0
-0.12642492 3.0630624 -1.3389071e-07 0
-0.10412282 7.6210613 -3.3312716e-07 0
-0.12681323 4.2610607 -1.8625688e-07 0
-0.13287771 8.1240597 -3.5511394e-07 0
-0.16093525 3.0700586 -1.3419653e-07 0
-0.13302867 7.4220638 -3.2442873e-07 0
-0.15840623 7.330061 -3.2040714e-07 0
-0.1589455 7.2370586 -3.1634187e-07 0
-0.16416164 7.2750607 -3.18003e-07 0
-0.19850634 7.3180599 -3.1988256e-07 0
-0.1990456 7.2760601 -3.1804669e-07 0
-0.20725082 7.3570614 -3.2158738e-07 0
-0.20985155 7.3660641 -3.2198088e-07 0
-0.23736982 3.074064 -1.343716e-07 0
-0.24436186 6.8180599 -2.9802686e-07 0
-0.25555611 6.941061 -3.0340343e-07 0
-0.28721368 5.580061 -2.4391221e-07 0
-0.27770725 6.566061 -2.8701163e-07 0
-0.30999047 6.5970592 -2.8836661e-07 0
-0.31520662 6.6100597 -2.889349e-07 0
-0.31780738 6.6320629 -2.8989669e-07 0
-0.32432473 6.6500607 -2.9068337e-07 0
-0.35530674 6.6780605 -2.919073e-07 0
-0.34909132 4.7930584 -2.0951124e-07 0
-0.351843 3.0390604 -1.3284155e-07 0
-0.36089653 6.7040615 -2.9304383e-07 0
-0.37745789 4.6780605 -2.0448452e-07 0
-0.38282502 3.0640619 -1.3393439e-07 0
-0.36405122 6.7210598 -2.9378685e-07 0
-0.38542575 3.0760629 -1.3445899e-07 0
-0.38895407 3.0670602 -1.3406546e-07 0
-0.41993609 3.0770624 -1.3450267e-07 0
-0.41471994 4.0940609 -1.7895708e-07 0
-0.43710843 3.9280603 -1.7170098e-07 0
-0.42929152 5.9140606 -2.5851179e-07 0
-0.46064717 5.9100628 -2.5833705e-07 0
-0.46118647 5.8860607 -2.5728789e-07 0
-0.46939164 5.9710598 -2.6100332e-07 0
-0.47460783 6.0110607 -2.627518e-07 0
-0.50327629 3.1880624 -1.3935464e-07 0
-0.50689095 6.0190639 -2.6310164e-07 0
-0.51745957 3.4160593 -1.493207e-07 0
-0.50650263 5.9540615 -2.6026029e-07 0
-0.53164285 3.6360605 -1.5893725e-07 0
-0.50611436 5.8850613 -2.5724421e-07 0
-0.51408219 3.8440607 -1.6802923e-07 0
-0.53241944 5.8140621 -2.5414073e-07 0
-0.52826548 4.0840588 -1.7851988e-07 0
-0.53203118 5.7410641 -2.5094988e-07 0
-0.54337639 4.3030605 -1.8809276e-07 0
-0.56039774 5.6500607 -2.4697201e-07 0
-0.55794799 5.580061 -2.4391221e-07 0
-0.58332551 5.4660625 -2.3892918e-07 0
-0.58555263 5.4380627 -2.3770527e-07 0
-0.58609188 5.4000607 -2.3604414e-07 0
-0.61759847 3.8270624 -1.672862e-07 0
-0.61744756 5.3830624 -2.3530113e-07 0
-0.63063157 2.9280603 -1.2798958e-07 0
-0.61407018 5.3060589 -2.319352e-07 0
-0.64336437 5.2610607 -2.2996826e-07 0
-0.63699794 5.066061 -2.2144457e-07 0
-0.65470958 4.79006 -2.0938018e-07 0
-0.67709804 4.6330624 -2.0251758e-07 0
-0.67073166 4.4840603 -1.9600451e-07 0
-0.69442135 4.3470592 -1.90016e-07 0
-0.71680987 4.1920605 -1.8324079e-07 0
-0.71137106 4.0390606 -1.7655294e-07 0
-0.78695726 -3.0469382 1.3318589e-07 0
-0.73674858 3.8950632 -1.7025862e-07 0
-0.7586624 0.096059605 -4.1988986e-09 0
-0.75744927 3.7280633 -1.6295883e-07 0
-0.76985663 0.26106051 -1.1411317e-08 0
-0.77898943 0.39706209 -1.7356136e-08 0
-0.81034505 0.41406038 -1.8099154e-08 0
-0.80152887 -0.27093717 1.184304e-08 0
-0.86055374 -4.9569416 2.1667481e-07 0
-0.88072985 -4.1009388 1.7925773e-07 0
-0.92503214 -6.4299412 2.8106166e-07 0
-0.93776494 -4.6879368 2.0491622e-07 0
-0.96015346 -4.8079395 2.1016172e-07 0
-0.9902724 -7.8339405 3.4243243e-07 0
-1.0020059 -8.1829395 3.5768764e-07 0
-1.0504622 -9.3219395 4.0747491e-07 0
-1.0668726 -9.5309391 4.1661059e-07 0
-1.0535377 -5.7959385 2.5334853e-07 0
-1.1407064 -10.75194 4.6998221e-07 0
-1.1105875 -6.3279362 2.7660286e-07 0
-1.1494509 -11.076937 4.8418826e-07 0
-1.1072102 -6.4209385 2.8066813e-07 0
-1.1308998 -6.5339375 2.8560748e-07 0
-1.1502993 -6.6719379 2.9163968e-07 0
-1.1979072 -12.197939 5.3318882e-07 0
-1.1736153 -6.7959385 2.970599e-07 0
-1.2146913 -12.363939 5.4044494e-07 0
-1.1676226 -6.895937 3.0143099e-07 0
-1.1879497 -7.044939 3.0794408e-07 0
-1.2324029 -12.085939 5.2829319e-07 0
-1.2103381 -7.169939 3.1340798e-07 0
-1.2603959 -12.087938 5.2838055e-07 0
-1.2310388 -7.2979374 3.1900296e-07 0
-1.2246723 -7.4119358 3.23986e-07 0
-1.2440718 -7.544939 3.2979975e-07 0
-1.2677615 -7.6709385 3.3530736e-07 0
-1.258406 -7.7859364 3.4033408e-07 0
-1.2791067 -7.919939 3.4619154e-07 0
-1.3014952 -8.0459385 3.5169913e-07 0
-1.3218223 -8.1829395 3.5768764e-07 0
-1.3158295 -8.3079395 3.6315157e-07 0
-1.3352289 -8.4429417 3.6905271e-07 0
-1.3585451 -8.558939 3.7412312e-07 0
-1.3783181 -8.6849384 3.7963071e-07 0
-1.3698902 -8.8219395 3.8561922e-07 0
-1.3896633 -8.9469395 3.9108315e-07 0
-1.4129794 -9.0479374 3.9549789e-07 0
-1.4323789 -9.1949406 4.0192361e-07 0
-1.4233971 -9.3219395 4.0747491e-07 0
-1.443724 -9.4579411 4.1341974e-07 0
-1.4634972 -9.596941 4.1949562e-07 0
-1.4868132 -9.7159367 4.2469708e-07 0
-1.5062127 -9.8399372 4.3011732e-07 0
-1.4981585 -9.9499378 4.349256e-07 0
-1.526525 -9.9499378 4.349256e-07 0
-1.5287521 -9.9099369 4.3317709e-07 0
-1.5322804 -9.8779392 4.3177843e-07 0
-1.5636361 -9.8269367 4.2954903e-07 0
-1.5660142 -10.660936 4.6600434e-07 0
-1.5967588 -12.391939 5.4166884e-07 0
-1.5854136 -10.808939 4.7247372e-07 0
-1.629042 -12.373941 5.4088218e-07 0
-1.6091033 -10.883936 4.7575196e-07 0
-1.6256647 -12.382936 5.4127537e-07 0
-1.6113304 -10.849939 4.742659e-07 0
-1.6252763 -12.377939 5.4105692e-07 0
-1.6406246 -10.80794 4.7243003e-07 0
-1.6545706 -12.369936 5.4070705e-07 0
-1.6432253 -10.780939 4.7124982e-07 0
-1.6511931 -12.379938 5.4114429e-07 0
-1.6795598 -12.377939 5.4105692e-07 0
-1.67397 -11.589937 5.0661225e-07 0
-1.7002751 -11.637941 5.0871057e-07 0
-1.7172101 -12.226938 5.3445643e-07 0
-1.756771 -12.499941 5.4638974e-07 0
-1.7573103 -12.470942 5.4512219e-07 0
0.44059575 3.1080606 -1.3585765e-07 0
0.43484032 3.1040628 -1.356829e-07 0
0.40348467 3.1070611 -1.3581396e-07 0
0.39772925 3.1180627 -1.3629484e-07 0
0.36637363 3.1210611 -1.3642591e-07 0
0.36676192 3.1190622 -1.3633854e-07 0
0.35762915 3.2170618 -1.4062223e-07 0
0.3610065 3.12306 -1.3651329e-07 0
0.32965085 3.1070611 -1.3581396e-07 0
0.32612255 3.1040628 -1.356829e-07 0
0.32389542 3.1100595 -1.3594502e-07 0
0.29253981 3.1080606 -1.3585765e-07 0
0.25488946 3.0800607 -1.3463374e-07 0
0.24967332 3.0920618 -1.3515832e-07 0
0.21831767 3.097059 -1.3537675e-07 0
0.21478936 3.111059 -1.359887e-07 0
0.21478936 3.7330606 -1.6317726e-07 0
0.18802422 8.2470608 -3.6049047e-07 0
0.18579711 8.2490597 -3.6057784e-07 0
0.18020733 8.2490597 -3.6057784e-07 0
0.14829774 8.2510586 -3.6066521e-07 0
0.145697 8.2470608 -3.6049047e-07 0
0.14309625 8.2470608 -3.6049047e-07 0
0.11118668 8.2470608 -3.6049047e-07 0
0.10858595 8.1780605 -3.5747439e-07 0
0.10897426 8.1620617 -3.5677505e-07 0
0.10245688 8.1580639 -3.5660031e-07 0
0.07147488 8.1520596 -3.5633784e-07 0
0.068874136 8.153059 -3.5638152e-07 0
0.065345824 8.1380596 -3.5572589e-07 0
0.034363821 8.1440639 -3.5598833e-07 0
0.028774032 8.1340618 -3.5555112e-07 0
0.031223813 8.0550594 -3.5209783e-07 0
0.011824364 7.7330608 -3.3802283e-07 0
-0.0071003959 3.0800607 -1.3463374e-07 0
-0.011865344 7.5250607 -3.2893084e-07 0
-0.011865344 8.1370602 -3.556822e-07 0
-0.016693192 7.5430584 -3.2971755e-07 0
-0.031415753 7.1220608 -3.1131518e-07 0
-0.056793302 6.9870586 -3.0541403e-07 0
-0.067987554 7.153059 -3.1267015e-07 0
-0.08010938 7.3580608 -3.2163106e-07 0
-0.085699163 7.3810635 -3.2263654e-07 0
-0.087926276 7.3860607 -3.2285496e-07 0
-0.090527005 7.4000607 -3.2346694e-07 0
-0.11804528 3.088064 -1.3498357e-07 0
-0.12281024 7.4040585 -3.2364167e-07 0
-0.12802638 7.41506 -3.2412257e-07 0
-0.13062711 7.42906 -3.2473451e-07 0
-0.15931031 5.5610638 -2.4308181e-07 0
-0.16490009 5.580061 -2.4391221e-07 0
-0.1872886 5.4370632 -2.3766158e-07 0
-0.19941042 6.6640606 -2.9129535e-07 0
-0.22638942 3.0670602 -1.3406546e-07 0
-0.20201115 6.6780605 -2.919073e-07 0
-0.2269287 3.0550592 -1.3354088e-07 0
-0.23598222 6.6950588 -2.9265033e-07 0
-0.22976677 4.8070583 -2.1012319e-07 0
-0.23951052 6.7010632 -2.9291277e-07 0
-0.24211128 6.7310619 -2.9422407e-07 0
-0.26403975 3.0670602 -1.3406546e-07 0
-0.24433838 6.7060604 -2.9313122e-07 0
-0.26664048 3.074064 -1.343716e-07 0
-0.2706435 6.5940609 -2.8823555e-07 0
-0.29799613 3.0810602 -1.3467742e-07 0
-0.27025518 6.5110607 -2.8460749e-07 0
-0.3011508 3.0900629 -1.3507093e-07 0
-0.29862177 6.4590588 -2.8233441e-07 0
-0.31310701 3.8940637 -1.7021493e-07 0
-0.29916105 6.4000607 -2.7975554e-07 0
-0.32752764 6.3200588 -2.7625853e-07 0
-0.32713935 6.255064 -2.7341753e-07 0
-0.35344446 6.1450634 -2.6860926e-07 0
-0.35205686 3.2580621 -1.4241442e-07 0
-0.35305616 6.1110592 -2.6712289e-07 0
-0.35528326 6.0900631 -2.6620512e-07 0
-0.38457742 5.9970608 -2.6213985e-07 0
-0.38356346 3.2190607 -1.4070962e-07 0
-0.37858465 5.8860607 -2.5728789e-07 0
-0.3838008 5.8720608 -2.5667592e-07 0
-0.40711689 5.7750607 -2.5243591e-07 0
-0.41547307 4.2420635 -1.8542649e-07 0
-0.40971762 5.7130642 -2.4972596e-07 0
-0.43901181 5.6500607 -2.4697201e-07 0
-0.43563443 5.5680599 -2.4338763e-07 0
-0.46101201 5.4780636 -2.3945375e-07 0
-0.46155125 5.4040585 -2.362189e-07 0
-0.49006879 3.7770593 -1.651005e-07 0
-0.48991787 5.3860607 -2.354322e-07 0
-0.49528497 3.8070581 -1.6641179e-07 0
-0.49214494 5.3660641 -2.3455812e-07 0
-0.4956733 5.3390636 -2.3337789e-07 0
-0.5240398 5.3120632 -2.3219766e-07 0
-0.52664053 5.3020611 -2.3176045e-07 0
-0.52419078 5.2020626 -2.2738938e-07 0
-0.54918003 4.5780621 -2.0011345e-07 0
-0.57249612 4.4140606 -1.9294471e-07 0
-0.56911874 4.2610607 -1.8625688e-07 0
-0.58944577 4.1120586 -1.7974379e-07 0
-0.61220789 3.9550607 -1.728812e-07 0
-0.60584152 3.7870615 -1.6553771e-07 0
-0.62915754 3.6370599 -1.5898094e-07 0
-0.64548159 0.26106051 -1.1411317e-08 0
-0.65154606 3.4690607 -1.5163745e-07 0
-0.66265392 0.550062 -2.4043974e-08 0
-0.64648086 3.3320596 -1.4564895e-07 0
-0.67384821 0.72105962 -3.1518518e-08 0
-0.7235176 -4.1139393 1.79826e-07 0
-0.75580084 -4.1039371 1.7938879e-07 0
-0.80310684 -6.3549366 2.777831e-07 0
-0.81583965 -4.6559391 2.0351756e-07 0
-0.81222498 -6.7659397 2.9574861e-07 0
-0.80648422 -4.8249378 2.1090473e-07 0
-0.86535811 -7.8269367 3.4212627e-07 0
-0.87709165 -8.1189365 3.5488998e-07 0
-0.92814869 -9.2809391 4.0568273e-07 0
-0.93161237 -5.7149372 2.4980784e-07 0
-0.962659 -9.6559391 4.2207449e-07 0
-0.92654717 -5.8619404 2.5623356e-07 0
-1.0161657 -10.710939 4.6819002e-07 0
-1.0219212 -11.119936 4.8606785e-07 0
-1.0733665 -12.141939 5.3074103e-07 0
-1.0901506 -12.374941 5.4092584e-07 0
-1.0427083 -6.8559361 2.9968248e-07 0
-1.0634089 -6.9859409 3.0536518e-07 0
-1.1328661 -12.089937 5.2846792e-07 0
-1.1225202 -7.5029392 3.279639e-07 0
-1.1140922 -7.6279392 3.3342781e-07 0
-1.1368544 -7.7389393 3.3827979e-07 0
-1.1571815 -7.8779392 3.4435567e-07 0
-1.1538041 -7.9489384 3.4745912e-07 0
-1.1705881 -8.1399403 3.5580808e-07 0
-1.1909151 -8.2689381 3.6144675e-07 0
-1.233005 -11.284937 4.9328025e-07 0
-1.2133037 -8.3779392 3.6621137e-07 0
-1.2340044 -8.5039387 3.7171895e-07 0
-1.240822 -11.174936 4.8847198e-07 0
-1.2246488 -8.6419392 3.7775115e-07 0
-1.2453495 -8.7699375 3.8334613e-07 0
-1.267738 -8.9019413 3.8911622e-07 0
-1.2613716 -8.994936 3.9318115e-07 0
-1.2790833 -9.1449375 3.9973793e-07 0
-1.2984827 -9.2929401 4.0620731e-07 0
-1.3217988 -9.4069386 4.1119034e-07 0
-1.3385828 -9.5409412 4.170478e-07 0
-1.3331439 -9.6609364 4.2229294e-07 0
-1.3529171 -9.7929401 4.28063e-07 0
-1.373244 -9.9209385 4.3365799e-07 0
-1.3956326 -10.013941 4.3772326e-07 0
-1.3982333 -9.9749393 4.3601844e-07 0
-1.4017617 -9.9329395 4.3418257e-07 0
-1.4357327 -9.8219395 4.2933061e-07 0
-1.4353445 -9.8099384 4.2880603e-07 0
-1.4638619 -10.706942 4.6801529e-07 0
-1.4638619 -10.244936 4.4782038e-07 0
-1.4781963 -10.936937 4.7806873e-07 0
-1.5071168 -10.915941 4.7715093e-07 0
-1.5156956 -10.782938 4.7133719e-07 0
-1.5262789 -12.37694 5.4101321e-07 0
-1.5179226 -10.738939 4.6941395e-07 0
-1.5520301 -12.40494 5.4223716e-07 0
-1.5502059 -10.698938 4.6766544e-07 0
-1.5636126 -11.335939 4.9550965e-07 0
-1.5723571 -11.613939 5.0766141e-07 0
-1.5719688 -11.62594 5.0818602e-07 0
-1.5982739 -11.66794 5.1002183e-07 0
-1.5978856 -11.655939 5.0949728e-07 0
-1.6435901 -12.243937 5.3519949e-07 0
-1.6491799 -12.133936 5.3039116e-07 0
-1.6573851 -12.003939 5.2470881e-07 0
-1.686291 -11.545938 5.0468901e-07 0
0.55377656 3.2320611 -1.4127788e-07 0
0.52242088 3.2470605 -1.4193353e-07 0
0.51982015 3.2500589 -1.4206459e-07 0
0.51629186 3.2570627 -1.4237074e-07 0
0.48530984 3.24806 -1.4197721e-07 0
0.48868719 3.1310632 -1.3686312e-07 0
0.48515889 3.1220605 -1.3646959e-07 0
0.45380324 3.1320627 -1.3690681e-07 0
0.45157614 3.1240594 -1.3655698e-07 0
0.44804782 3.1240594 -1.3655698e-07 0
0.44544709 3.1220605 -1.3646959e-07 0
0.41708049 3.1120584 -1.360324e-07 0
0.4139258 3.1200616 -1.3638223e-07 0
0.40833601 3.1180627 -1.3629484e-07 0
0.33970368 3.7230585 -1.6274005e-07 0
0.30259261 3.1080606 -1.3585765e-07 0
0.29999188 3.111059 -1.359887e-07 0
0.29739115 3.1330621 -1.3695049e-07 0
0.23871642 8.1080608 -3.544146e-07 0
0.24508281 7.9240627 -3.4637179e-07 0
0.23351493 8.1090603 -3.5445828e-07 0
0.19861631 8.1110592 -3.5454565e-07 0
0.19601557 8.1220608 -3.5502654e-07 0
0.18904699 3.0750635 -1.3441529e-07 0
0.19378845 8.1310635 -3.5542007e-07 0
0.15676378 3.0670602 -1.3406546e-07 0
0.1872711 8.1350613 -3.5559484e-07 0
0.15416303 3.0800607 -1.3463374e-07 0
0.15591545 8.1360607 -3.5563852e-07 0
0.15368836 8.1360607 -3.5563852e-07 0
0.15232424 3.0690591 -1.3415284e-07 0
0.15016003 8.1380596 -3.5572589e-07 0
0.14457025 8.1460629 -3.560757e-07 0
0.11358824 8.1500607 -3.5625047e-07 0
0.11005992 8.1640606 -3.5686242e-07 0
0.10484377 8.1670589 -3.569935e-07 0
0.079466216 8.0630627 -3.5244767e-07 0
0.075937904 8.0510616 -3.5192309e-07 0
0.028409213 6.4080639 -2.8010538e-07 0
0.021891844 6.4220638 -2.8071733e-07 0
0.0028807027 6.1330624 -2.6808468e-07 0
-0.0090901554 7.4960613 -3.2766326e-07 0
-0.028014915 3.0780618 -1.3454635e-07 0
-0.011690896 7.5110607 -3.2831889e-07 0
-0.030615652 3.0930612 -1.35202e-07 0
-0.04297483 5.5890636 -2.4430574e-07 0
-0.067726724 3.0670602 -1.3406546e-07 0
-0.062913552 5.3260632 -2.3280961e-07 0
-0.068265989 3.048063 -1.3323506e-07 0
-0.066125274 7.0830593 -3.0961036e-07 0
-0.099247999 3.0610635 -1.3380334e-07 0
-0.068352371 7.0740643 -3.0921717e-07 0
-0.097646542 6.9970608 -3.0585124e-07 0
-0.10522609 4.8030605 -2.0994844e-07 0
-0.12555312 4.5360622 -1.9827758e-07 0
-0.12616409 6.8020611 -2.9732755e-07 0
-0.12815386 4.5250607 -1.9779668e-07 0
-0.1420998 3.062063 -1.3384702e-07 0
-0.14809257 4.2700634 -1.866504e-07 0
-0.18520364 3.774061 -1.6496945e-07 0
-0.19079344 3.7750604 -1.6501313e-07 0
-0.2137212 3.0930612 -1.35202e-07 0
-0.20820312 6.3070583 -2.7569027e-07 0
-0.21073215 3.4940622 -1.5273031e-07 0
-0.20575334 6.2600613 -2.7363598e-07 0
-0.23909874 3.48406 -1.522931e-07 0
-0.25382131 3.1160638 -1.3620748e-07 0
-0.23672067 6.1110592 -2.6712289e-07 0
-0.25903744 3.1880624 -1.3935464e-07 0
-0.26722798 2.7770593 -1.2138912e-07 0
-0.28495428 3.0510614 -1.3336613e-07 0
-0.28755501 3.0640619 -1.3393439e-07 0
-0.30810472 4.467062 -1.9526148e-07 0
-0.32388946 1.4550607 -6.3602727e-08 0
-0.31033182 4.4660625 -1.9521779e-07 0
-0.34980628 0.81805974 -3.5758529e-08 0
-0.31669822 5.5910625 -2.4439311e-07 0
-0.35203338 0.78906041 -3.4490927e-08 0
-0.34506482 5.580061 -2.4391221e-07 0
-0.35679832 5.1920605 -2.2695217e-07 0
-0.36799258 5.3480587 -2.3377108e-07 0
-0.36760426 5.3440609 -2.3359632e-07 0
-0.39367205 3.0760629 -1.3445899e-07 0
-0.40010136 -0.58793849 2.5699608e-08 0
-0.37412164 5.3440609 -2.3359632e-07 0
-0.39589915 3.0610635 -1.3380334e-07 0
-0.37634873 5.3440609 -2.3359632e-07 0
-0.39849991 3.0550592 -1.3354088e-07 0
-0.42779407 3.0680597 -1.3410914e-07 0
-0.45492405 -1.2699378 5.5510743e-08 0
-0.45115834 -1.9099371 8.3486007e-08 0
-0.48344159 -1.9059393 8.3311257e-08 0
-0.50299191 -2.6329367 1.1508932e-07 0
-0.50521904 -2.6279395 1.1487088e-07 0
-0.49067098 4.4490643 -1.9447478e-07 0
-0.53113586 -3.2509406 1.4210312e-07 0
-0.49626076 4.5250607 -1.9779668e-07 0
-0.5016278 3.0800607 -1.3463374e-07 0
-0.50446594 4.6360607 -2.0264865e-07 0
-0.50684398 3.0760629 -1.3445899e-07 0
-0.56563151 -3.7069418 1.6203558e-07 0
-0.53077102 5.0110607 -2.1904042e-07 0
-0.53574985 3.048063 -1.3323506e-07 0
-0.53337181 5.0130596 -2.191278e-07 0
-0.53559887 5.028059 -2.1978344e-07 0
-0.54211622 5.028059 -2.1978344e-07 0
-0.5674938 4.955061 -2.165926e-07 0
-0.57009453 4.955061 -2.165926e-07 0
-0.57324922 4.9540615 -2.1654891e-07 0
-0.60161585 4.955061 -2.165926e-07 0
-0.60720557 4.955061 -2.165926e-07 0
-0.6361115 4.3990612 -1.9228908e-07 0
-0.62376696 4.1770611 -1.8258514e-07 0
-0.64708304 4.0350628 -1.7637819e-07 0
-0.66984516 3.8750589 -1.6938421e-07 0
-0.66440636 3.7420633 -1.6357077e-07 0
-0.68679488 3.5790613 -1.5644574e-07 0
-0.7101109 3.437063 -1.5023879e-07 0
-0.79028767 -5.5989399 2.4473744e-07 0
-0.81519049 -9.1239414 3.9882013e-07 0
-0.70112914 3.2700632 -1.42939e-07 0
-0.78989935 -5.6259403 2.4591768e-07 0
-0.83811831 -9.7529392 4.263145e-07 0
-0.82701039 -5.9469395 2.5994899e-07 0
-0.87445271 -10.602938 4.6346912e-07 0
-0.89439148 -11.225939 4.9070138e-07 0
-0.92275804 -11.228937 4.9083241e-07 0
-0.93072593 -12.030939 5.2588905e-07 0
-0.90138352 -6.7109394 2.9334447e-07 0
-0.96822524 -12.368937 5.4066339e-07 0
-0.90398425 -6.7009373 2.9290726e-07 0
-0.96484792 -12.387941 5.414941e-07 0
-0.94148362 -7.032938 3.074195e-07 0
-1.0135416 -12.030939 5.2588905e-07 0
-1.0412343 -7.8139362 3.4155801e-07 0
-1.0520402 -8.0769367 3.5305411e-07 0
-1.051652 -8.0779362 3.5309782e-07 0
-1.0821592 -11.360941 4.9660252e-07 0
-1.125414 -11.099939 4.8519377e-07 0
-1.1591477 -12.355936 5.4009513e-07 0
-1.1617485 -12.336939 5.392647e-07 0
-1.1454245 -8.907938 3.8937833e-07 0
-1.160147 -9.1279392 3.989949e-07 0
-1.2449378 -12.36294 5.4040129e-07 0
-1.2306035 -10.280939 4.4939412e-07 0
-1.2572969 -9.8829365 4.3199688e-07 0
-1.2483151 -9.9859409 4.3649933e-07 0
-1.2993867 -12.341936 5.3948315e-07 0
-1.2792971 -9.9769382 4.3610581e-07 0
-1.2884152 -10.281939 4.4943781e-07 0
-1.308203 -9.9329395 4.3418257e-07 0
-1.3389477 -9.4439411 4.1280776e-07 0
-1.3712308 -9.4019413 4.1097189e-07 0
-1.3993601 -11.18294 4.888218e-07 0
-1.3820368 -9.2159367 4.0284138e-07 0
-1.3885542 -9.1239414 3.9882013e-07 0
-1.4225252 -9.0279408 3.9462381e-07 0
-1.428115 -8.9569416 3.9152036e-07 0
-1.4342587 -8.8689365 3.8767354e-07 0
-1.4398485 -8.7859364 3.8404548e-07 0
-1.4708306 -8.7649403 3.8312771e-07 0
-1.4847765 -9.7999363 4.2836882e-07 0
-1.4853158 -9.8249378 4.2946166e-07 0
-1.5298554 -12.127939 5.3012906e-07 0
-1.4821757 -8.5429401 3.7342377e-07 0
-1.5419773 -11.938936 5.2186749e-07 0
-1.5084809 -8.6279392 3.771392e-07 0
-1.5501825 -11.824938 5.1688443e-07 0
-1.5252649 -8.7939396 3.8439532e-07 0
-1.5587612 -11.686937 5.1085226e-07 0
-1.545592 -8.9089375 3.8942201e-07 0
-1.5639774 -11.546938 5.0473267e-07 0
-1.5366101 -9.0409412 3.951921e-07 0
-1.5760993 -11.405939 4.9856942e-07 0
-1.5560095 -9.1609364 4.0043724e-07 0
-1.5872935 -11.238939 4.9126965e-07 0
-1.5707321 -9.3619404 4.0922342e-07 0
-1.5984877 -11.061937 4.8353263e-07 0
-1.6100557 -10.86194 4.7479048e-07 0
-1.6191884 -10.730936 4.690641e-07 0
-1.6471667 -10.294939 4.5000607e-07 0
0.63223904 3.2790582 -1.4333219e-07 0
0.63001192 3.3140619 -1.4486224e-07 0
0.62741119 3.3330591 -1.4569264e-07 0
0.62219507 3.361059 -1.4691655e-07 0
0.58991182 3.3870599 -1.4805309e-07 0
0.58731109 3.4100626 -1.4905856e-07 0
0.58209491 3.4220636 -1.4958314e-07 0
0.55280077 3.4280603 -1.4984528e-07 0
0.55019999 3.4270608 -1.4980159e-07 0
0.54498386 3.4420602 -1.5045723e-07 0
0.54444456 3.4300592 -1.4993265e-07 0
0.516078 3.3200586 -1.4512437e-07 0
0.51646626 3.2470605 -1.4193353e-07 0
0.49016118 3.1580637 -1.3804335e-07 0
0.48756045 3.1360605 -1.3708156e-07 0
0.48533332 3.1210611 -1.3642591e-07 0
0.45305011 3.1300638 -1.3681944e-07 0
0.45305011 3.7410638 -1.6352709e-07 0
0.41372663 3.0960596 -1.3533307e-07 0
0.38181704 3.1070611 -1.3581396e-07 0
0.37921628 3.0980585 -1.3542044e-07 0
0.37661555 3.1030633 -1.3563921e-07 0
0.37346086 3.1080606 -1.3585765e-07 0
0.34249353 3.0500619 -1.3332244e-07 0
0.33896521 3.0670602 -1.3406546e-07 0
0.30798322 3.074064 -1.343716e-07 0
0.30538246 3.0700586 -1.3419653e-07 0
0.30919635 8.0510616 -3.5192309e-07 0
0.30659562 8.0560589 -3.5214151e-07 0
0.23338746 3.0940607 -1.3524568e-07 0
0.24971148 7.7440624 -3.3850372e-07 0
0.23116036 3.1050622 -1.3572658e-07 0
0.25216123 7.5960598 -3.3203432e-07 0
0.23338746 4.2750607 -1.8686883e-07 0
0.2327618 7.380064 -3.2259285e-07 0
0.21558946 7.630064 -3.3352069e-07 0
0.19526243 7.9690609 -3.4833872e-07 0
0.1926617 7.9170589 -3.4606563e-07 0
0.16336752 7.8440609 -3.4287478e-07 0
0.16375583 7.7750607 -3.398587e-07 0
0.1671332 7.6580639 -3.3474461e-07 0
0.12127765 6.0410595 -2.6406309e-07 0
0.10724533 7.4990597 -3.2779431e-07 0
0.11867692 6.0500622 -2.6445662e-07 0
0.087781295 3.036062 -1.3271048e-07 0
0.075961389 5.5890636 -2.4430574e-07 0
0.082565136 3.0930612 -1.35202e-07 0
0.073360644 5.5940609 -2.4452416e-07 0
0.079964399 3.0670602 -1.3406546e-07 0
0.078188494 7.217062 -3.1546779e-07 0
0.075961389 7.2020626 -3.1481216e-07 0
0.056037351 5.2470608 -2.2935632e-07 0
0.0081203412 4.8120632 -2.1034197e-07 0
-0.0072278753 6.8170605 -2.9798318e-07 0
-0.0098286159 6.830061 -2.9855144e-07 0
-0.0088293254 4.455061 -1.947369e-07 0
-0.026152635 3.0670602 -1.3406546e-07 0
-0.03513445 4.3440609 -1.8988493e-07 0
-0.060900301 6.3860607 -2.7914359e-07 0
-0.068479851 3.7050607 -1.6195335e-07 0
-0.063501038 6.380064 -2.7888146e-07 0
-0.083202414 3.361059 -1.4691655e-07 0
-0.10260188 3.1080606 -1.3585765e-07 0
-0.13449678 3.1080606 -1.3585765e-07 0
-0.12131277 6.1220608 -2.6760378e-07 0
-0.12813038 2.9120615 -1.2729025e-07 0
-0.13111942 3.5200632 -1.5386685e-07 0
-0.17382026 2.0400598 -8.9173845e-08 0
-0.16041358 3.9380624 -1.7213817e-07 0
-0.18217644 1.5560586 -6.8017485e-08 0
-0.19737369 4.5910625 -2.0068171e-07 0
-0.21408601 1.5670602 -6.849838e-08 0
-0.197762 5.653059 -2.4710306e-07 0
-0.231021 0.70406133 -3.0775499e-08 0
-0.20350273 5.0680599 -2.2153193e-07 0
-0.23448475 5.1080608 -2.2328044e-07 0
-0.24245261 3.0770624 -1.3450267e-07 0
-0.26215398 0.17606144 -7.6958901e-09 0
-0.22589125 5.3860607 -2.354322e-07 0
-0.2817044 -0.64493769 2.8191122e-08 0
-0.2570242 5.2920589 -2.3132324e-07 0
-0.31620005 -1.1559393 5.0527714e-08 0
-0.28930742 5.2910595 -2.3127956e-07 0
-0.28270367 3.0470636 -1.3319138e-07 0
-0.31405932 3.0500619 -1.3332244e-07 0
-0.3615163 -1.9749396 8.6327354e-08 0
-0.361128 -1.9949362 8.7201435e-08 0
-0.38927191 -2.5449393 1.1124283e-07 0
-0.40919596 -3.3399374 1.459933e-07 0
-0.42092949 -3.6419394 1.5919423e-07 0
-0.38490409 3.0330637 -1.3257942e-07 0
-0.43173543 -3.9849417 1.7418733e-07 0
-0.39104781 3.0630624 -1.3389071e-07 0
-0.38866976 5.0260601 -2.1969606e-07 0
-0.42240345 3.0650613 -1.3397809e-07 0
-0.41965175 5.04006 -2.2030802e-07 0
-0.42255443 2.5120599 -1.0980563e-07 0
-0.42318007 5.0380611 -2.2022064e-07 0
-0.42578083 5.0370617 -2.2017696e-07 0
-0.50894654 -4.244936 1.8555204e-07 0
-0.46265453 3.0800607 -1.3463374e-07 0
-0.54843569 -6.1559391 2.6908464e-07 0
-0.45691377 4.9710598 -2.1729193e-07 0
-0.55127376 -4.5579395 1.9923387e-07 0
-0.54804736 -6.1569386 2.6912832e-07 0
-0.45951456 4.9850597 -2.1790389e-07 0
-0.49623728 3.0770624 -1.3450267e-07 0
-0.56238163 -6.9439411 3.035293e-07 0
-0.49179775 4.9710598 -2.1729193e-07 0
-0.49976557 3.0800607 -1.3463374e-07 0
-0.49402487 4.9690609 -2.1720454e-07 0
-0.49900365 3.0760629 -1.3445899e-07 0
-0.4966256 4.967062 -2.1711718e-07 0
-0.53334826 3.0690591 -1.3415284e-07 0
-0.52890873 4.9690609 -2.1720454e-07 0
-0.53388757 3.0670602 -1.3406546e-07 0
-0.52852046 4.9680614 -2.1716086e-07 0
-0.56225413 3.0260599 -1.3227327e-07 0
-0.53373659 4.9680614 -2.1716086e-07 0
-0.56303078 4.967062 -2.1711718e-07 0
-0.56563151 4.9580593 -2.1672365e-07 0
-0.56785864 4.955061 -2.165926e-07 0
-0.60014182 4.9490643 -2.1633046e-07 0
-0.60810971 3.1030633 -1.3563921e-07 0
-0.60274255 4.9420605 -2.1602432e-07 0
-0.60235429 4.9420605 -2.1602432e-07 0
-0.7551282 -10.601938 4.6342544e-07 0
-0.63725293 4.9500637 -2.1637416e-07 0
-0.77207786 -11.262941 4.923188e-07 0
-0.63387555 4.8860607 -2.135765e-07 0
-0.65626407 4.7440624 -2.0736955e-07 0
-0.65119886 4.5830593 -2.0033188e-07 0
-0.81531799 -12.027941 5.2575797e-07 0
-0.67358732 4.4490643 -1.9447478e-07 0
-0.78803706 -6.6419392 2.9032839e-07 0
-0.84890074 -12.366938 5.4057602e-07 0
-0.69391435 4.2750607 -1.8686883e-07 0
-0.68792158 4.130064 -1.8053083e-07 0
-0.82215911 -7.0599384 3.0859971e-07 0
-0.70732105 3.9280603 -1.7170098e-07 0
-0.86845118 -11.992937 5.2422791e-07 0
-0.89560461 -7.7679386 3.3954737e-07 0
-0.89614385 -7.770937 3.3967845e-07 0
-0.9297266 -8.1569386 3.5655111e-07 0
-0.93325496 -8.1259403 3.5519614e-07 0
-0.98630166 -12.377939 5.4105692e-07 0
-0.9859134 -12.363939 5.4044494e-07 0
-1.01428 -12.349939 5.3983297e-07 0
-1.0090785 -11.049936 4.8300808e-07 0
-1.0007224 -8.8669376 3.8758614e-07 0
-1.0408225 -9.1619358 4.0048093e-07 0
-1.0972466 -12.36194 5.4035758e-07 0
-1.1256132 -12.346941 5.3970194e-07 0
-1.1086782 -10.310938 4.5070541e-07 0
-1.1122066 -9.8329411 4.2981151e-07 0
-1.1319796 -9.9729404 4.3593107e-07 0
-1.1609001 -9.9509373 4.3496928e-07 0
-1.1796739 -12.36294 5.4040129e-07 0
-1.1661016 -10.322939 4.5122999e-07 0
-1.2033637 -12.407938 5.4236818e-07 0
-1.1631125 -9.8969364 4.3260883e-07 0
-1.2572734 -11.09894 4.8515005e-07 0
-1.2710685 -11.285936 4.9332397e-07 0
-1.271845 -9.08494 3.9711534e-07 0
-1.2744458 -9.0419407 3.9523579e-07 0
-1.309718 -8.9789371 3.9248181e-07 0
-1.3179232 -8.8529377 3.8697419e-07 0
-1.320524 -8.7789402 3.8373966e-07 0
-1.3532584 -12.166941 5.3183385e-07 0
-1.3287292 -8.6799412 3.7941228e-07 0
-1.3937469 -12.394938 5.4179992e-07 0
-1.3610125 -8.6279392 3.771392e-07 0
-1.3662286 -8.5169392 3.7228725e-07 0
-1.3718183 -8.433939 3.6865919e-07 0
-1.3779621 -8.3639393 3.6559939e-07 0
-1.3835518 -8.2649403 3.6127201e-07 0
-1.3887681 -8.221941 3.5939246e-07 0
-1.4109192 -9.9739399 4.3597475e-07 0
-1.4120841 -8.256937 3.6092217e-07 0
-1.4402133 -9.9749393 4.3601844e-07 0
-1.4202746 -8.5719395 3.7469138e-07 0
-1.4655908 -10.004938 4.3732973e-07 0
-1.4491951 -8.5719395 3.7469138e-07 0
-1.4661301 -10.013941 4.3772326e-07 0
-1.4915076 -10.05694 4.3960281e-07 0
-1.4881303 -10.074938 4.4038953e-07 0
-1.5174245 -10.061937 4.3982124e-07 0
-1.5170362 -10.072939 4.4030213e-07 0
-1.5403523 -10.127939 4.4270629e-07 0
-1.539964 -10.127939 4.4270629e-07 0
-1.5481691 -10.016939 4.3785431e-07 0
-1.5563744 -9.8779392 4.3177843e-07 0
-1.5852803 -9.4639378 4.1368185e-07 0
0.7437467 3.3570611 -1.467418e-07 0
0.740592 3.3860605 -1.4800941e-07 0
0.70923638 3.4040582 -1.487961e-07 0
0.7036466 3.4360635 -1.5019511e-07 0
0.70049191 3.4560602 -1.5106919e-07 0
0.69789118 3.4830606 -1.5224941e-07 0
0.66354644 3.4970605 -1.5286138e-07 0
0.66039175 3.5110605 -1.5347332e-07 0
0.65779102 3.5150583 -1.5364807e-07 0
0.63241351 3.3970621 -1.484903e-07 0
0.63486326 3.2890604 -1.437694e-07 0
0.63226253 3.260061 -1.4250179e-07 0
0.6038959 3.2440622 -1.4180246e-07 0
0.60373032 3.1530588 -1.3782457e-07 0
0.58057988 3.6620615 -1.600738e-07 0
0.57276297 3.0940607 -1.3524568e-07 0
0.56923467 3.097059 -1.3537675e-07 0
0.56700754 3.097059 -1.3537675e-07 0
0.53565186 3.1070611 -1.3581396e-07 0
0.53212357 3.1040628 -1.356829e-07 0
0.52989644 3.1060617 -1.3577026e-07 0
0.49854082 3.1040628 -1.356829e-07 0
0.49501252 3.1050622 -1.3572658e-07 0
0.49241176 3.1020639 -1.3559551e-07 0
0.4644188 3.0890634 -1.3502725e-07 0
0.4608905 3.0940607 -1.3524568e-07 0
0.45828974 3.0920618 -1.3515832e-07 0
0.42890921 8.0100613 -3.501309e-07 0
0.42630845 8.0070629 -3.4999982e-07 0
0.40039164 7.7410641 -3.3837264e-07 0
0.38445592 3.0780618 -1.3454635e-07 0
0.35531273 4.2470608 -1.8564492e-07 0
0.35169801 7.4420605 -3.2530281e-07 0
0.34909728 7.4420605 -3.2530281e-07 0
0.35453612 7.2280636 -3.1594868e-07 0
0.3321476 7.0250607 -3.0707514e-07 0
0.31144696 6.7700634 -2.9592886e-07 0
0.31183526 6.7190609 -2.9369949e-07 0
0.31443599 7.7860622 -3.403396e-07 0
0.28606942 7.729063 -3.3784806e-07 0
0.28944677 7.6320629 -3.3360806e-07 0
0.25716355 7.6170635 -3.3295242e-07 0
0.2605409 7.4820614 -3.2705128e-07 0
0.24359123 5.9960613 -2.6209617e-07 0
0.25532475 7.5080624 -3.2818784e-07 0
0.23639999 3.0770624 -1.3450267e-07 0
0.20411678 3.0660608 -1.3402178e-07 0
0.22940794 7.2970638 -3.1896479e-07 0
0.22665624 5.580061 -2.4391221e-07 0
0.20749412 3.0060632 -1.3139919e-07 0
0.19712472 7.2790585 -3.1817774e-07 0
0.20227797 3.0390604 -1.3284155e-07 0
0.18095165 5.2180614 -2.2808871e-07 0
0.17835091 5.2190609 -2.2813239e-07 0
0.13303466 4.7980633 -2.0973e-07 0
0.14085156 6.8170605 -2.9798318e-07 0
0.11571135 4.4230633 -1.9333824e-07 0
0.11609966 4.3860607 -1.917208e-07 0
0.086417183 6.4490643 -2.8189754e-07 0
0.053071789 3.6780603 -1.6077313e-07 0
0.059438191 3.5800607 -1.5648942e-07 0
0.027528603 3.5670602 -1.5592116e-07 0
0.019338083 3.0670602 -1.3406546e-07 0
0.018798813 3.0800607 -1.3463374e-07 0
0.0036015538 6.1080608 -2.6699183e-07 0
-0.012183197 3.0660608 -1.3402178e-07 0
-0.012183197 3.5650613 -1.5583377e-07 0
-0.020151051 1.9850595 -8.676971e-08 0
-0.032883853 3.8720605 -1.6925314e-07 0
-0.051895 3.0750635 -1.3441529e-07 0
-0.060251161 1.5790613 -6.902296e-08 0
-0.055423312 3.0900629 -1.3507093e-07 0
-0.062851898 1.5960596 -6.9765981e-08 0
-0.10610671 0.66406041 -2.9027003e-08 0
-0.078588434 5.0130596 -2.191278e-07 0
-0.089545332 3.0470636 -1.3319138e-07 0
-0.081189178 5.0500622 -2.2074524e-07 0
-0.092146076 3.0950601 -1.3528937e-07 0
-0.11353529 0.23705845 -1.0362154e-08 0
-0.10097694 5.3720608 -2.3482023e-07 0
-0.10357767 5.3900585 -2.3560695e-07 0
-0.15716371 -0.69693965 3.04642e-08 0
-0.1567754 -0.6979391 3.0507888e-08 0
-0.13508426 5.3000622 -2.3167307e-07 0
-0.19388646 -1.1609366 5.0746149e-08 0
-0.16699386 5.2970638 -2.3154202e-07 0
-0.16337915 3.0540597 -1.334972e-07 0
-0.20745878 -2.00194 8.750758e-08 0
-0.24195443 -2.5029395 1.0940696e-07 0
-0.28129259 -3.3819373 1.4782917e-07 0
-0.2990042 -3.6189368 1.5818875e-07 0
-0.26596785 3.0680597 -1.3410914e-07 0
-0.29562685 -3.6719382 1.6050552e-07 0
-0.23184584 5.0420589 -2.2039539e-07 0
-0.26949617 3.0690591 -1.3415284e-07 0
-0.31004751 -1.9019415 8.3136506e-08 0
-0.26375544 5.0630627 -2.213135e-07 0
-0.26873425 3.0670602 -1.3406546e-07 0
-0.26635617 5.0520611 -2.208326e-07 0
-0.29448542 2.9280603 -1.2798958e-07 0
-0.2689569 5.0200634 -2.1943394e-07 0
-0.3032299 2.5530603 -1.1159781e-07 0
-0.29825109 5.0080624 -2.1890936e-07 0
-0.36961165 -5.5419407 2.4224593e-07 0
-0.38962206 -4.1999378 1.8358512e-07 0
-0.40096727 -4.5439396 1.986219e-07 0
-0.42612216 -6.1329365 2.6807916e-07 0
-0.33497384 4.955061 -2.165926e-07 0
-0.37186223 3.0530603 -1.334535e-07 0
-0.43707907 -6.9739399 3.048406e-07 0
-0.37745202 3.0610635 -1.3380334e-07 0
-0.43171194 -5.032938 2.1999671e-07 0
-0.37706372 3.0670602 -1.3406546e-07 0
-0.46399516 -4.994936 2.1833559e-07 0
-0.4883734 -7.6009388 3.3224759e-07 0
-0.41157404 3.0700586 -1.3419653e-07 0
-0.49933034 -8.407938 3.6752263e-07 0
-0.40620691 4.9510632 -2.1641785e-07 0
-0.41417477 3.0630624 -1.3389071e-07 0
-0.40880767 4.9500637 -2.1637416e-07 0
-0.44608435 3.0640619 -1.3393439e-07 0
-0.44071725 4.9530621 -2.1650521e-07 0
-0.44569606 3.0530603 -1.334535e-07 0
-0.44331798 4.9530621 -2.1650521e-07 0
-0.44829679 3.0500619 -1.3332244e-07 0
-0.44591874 4.955061 -2.165926e-07 0
-0.47759098 3.0390604 -1.3284155e-07 0
-0.4490734 4.967062 -2.1711718e-07 0
-0.48042905 4.9660625 -2.1707349e-07 0
-0.48302978 4.9640636 -2.1698611e-07 0
-0.48618448 4.9630642 -2.1694242e-07 0
-0.51754004 4.9520626 -2.1646153e-07 0
-0.51715177 4.9300594 -2.1549974e-07 0
-0.54046786 4.8060589 -2.1007951e-07 0
-0.54566932 4.3470592 -1.90016e-07 0
-0.56599635 4.1730633 -1.8241039e-07 0
-0.58539581 3.9970605 -1.7471706e-07 0
-0.58033061 3.8720605 -1.6925314e-07 0
-0.74391049 -11.998941 5.2449036e-07 0
-0.60271907 3.7030618 -1.6186597e-07 0
-0.6230461 3.5420587 -1.548283e-07 0
-0.61705333 3.3950632 -1.4840292e-07 0
-0.74230903 -7.7789402 3.4002827e-07 0
-0.77122957 -7.7589359 3.3915387e-07 0
-0.8039493 -11.443941 5.0023056e-07 0
-0.80572522 -8.1329365 3.5550195e-07 0
-0.83623254 -11.395937 4.9813224e-07 0
-0.86138737 -12.366938 5.4057602e-07 0
-0.86099911 -12.359941 5.4027021e-07 0
-0.86061078 -12.337938 5.3930842e-07 0
-0.88453782 -11.05794 4.8335789e-07 0
-0.87618166 -8.8639393 3.8745509e-07 0
-0.91329277 -9.1829395 4.0139903e-07 0
-0.96971691 -12.406939 5.4232453e-07 0
-0.96932852 -12.37594 5.4096955e-07 0
-0.95538259 -10.336939 4.5184194e-07 0
-0.98766577 -9.8219395 4.2933061e-07 0
-1.0040762 -9.994936 4.3689252e-07 0
-1.0066769 -9.9649372 4.3558123e-07 0
-1.0491551 -12.40394 5.4219345e-07 0
-1.0385718 -10.351938 4.524976e-07 0
-1.054745 -12.349939 5.3983297e-07 0
-1.0385718 -9.9059391 4.3300236e-07 0
-1.1009887 -11.129938 4.8650503e-07 0
-1.1207619 -11.266939 4.9249354e-07 0
-1.1440779 -11.335939 4.9550965e-07 0
-1.1473043 -9.0889378 3.9729008e-07 0
-1.1521322 -9.0159397 3.9409923e-07 0
-1.2343222 -12.071939 5.2768121e-07 0
-1.1982104 -8.7489414 3.8242837e-07 0
-1.2404512 -12.377939 5.4105692e-07 0
-1.2043542 -8.6379414 3.7757641e-07 0
-1.2456673 -12.280939 5.3681691e-07 0
-1.2129329 -8.5469379 3.7359851e-07 0
-1.2779506 -12.243937 5.3519949e-07 0
-1.2211381 -8.4159412 3.6787247e-07 0
-1.2504324 -8.3769398 3.6616765e-07 0
-1.2586375 -8.2849369 3.621461e-07 0
-1.2612383 -8.2109394 3.5891156e-07 0
-1.2664545 -8.1279392 3.552835e-07 0
-1.2759608 -8.0299397 3.5099981e-07 0
-1.3043275 -8.0029392 3.4981957e-07 0
-1.3242662 -8.5749378 3.7482243e-07 0
-1.3611399 -10.935938 4.7802502e-07 0
-1.347194 -8.6159382 3.7661462e-07 0
-1.3805393 -10.616938 4.640811e-07 0
-1.3497946 -8.6049366 3.7613373e-07 0
-1.3805393 -10.208941 4.4624696e-07 0
-1.380151 -10.192942 4.4554764e-07 0
-1.4124342 -10.155939 4.4393019e-07 0
-1.4146614 -10.123941 4.4253153e-07 0
-1.4288447 -9.9019413 4.3282759e-07 0
-1.4409665 -9.7509403 4.2622713e-07 0
-1.4577506 -9.4669361 4.1381293e-07 0
-1.4866564 -9.0609379 3.9606618e-07 0
0.70810962 3.7450616 -1.6370184e-07 0
0.70588249 3.7640588 -1.6453224e-07 0
0.70328176 3.7890604 -1.6562508e-07 0
0.67099851 3.8140619 -1.6671794e-07 0
0.66578239 3.8390634 -1.678108e-07 0
0.66318166 3.8560617 -1.6855381e-07 0
0.65965331 3.8690622 -1.6912207e-07 0
0.62867129 3.8820627 -1.6969035e-07 0
0.62607056 3.8830621 -1.6973404e-07 0
0.61433703 3.4170587 -1.4936438e-07 0
0.61472535 3.3560617 -1.4669811e-07 0
0.58281577 3.3450601 -1.4621722e-07 0
0.58581948 3.260061 -1.4250179e-07 0
0.55782652 3.1760614 -1.3883005e-07 0
0.55728728 3.1070611 -1.3581396e-07 0
0.55468655 3.0910623 -1.3511462e-07 0
0.52333087 3.0930612 -1.35202e-07 0
0.52017617 3.097059 -1.3537675e-07 0
0.53351116 7.8110638 -3.4143244e-07 0
0.48882055 4.2690639 -1.8660671e-07 0
0.48345345 3.0530603 -1.334535e-07 0
0.4520978 3.0810602 -1.3467742e-07 0
0.44856948 3.0800607 -1.3463374e-07 0
0.46528181 7.066061 -3.0886733e-07 0
0.44634238 3.0780618 -1.3454635e-07 0
0.44673067 3.0350626 -1.326668e-07 0
0.44534308 6.67906 -2.9195098e-07 0
0.41996554 6.5940609 -2.8823555e-07 0
0.42241532 6.4130611 -2.803238e-07 0
0.41122106 6.6220608 -2.8945948e-07 0
0.37733641 3.0700586 -1.3419653e-07 0
0.39703777 6.8410625 -2.9903234e-07 0
0.35433692 5.8170605 -2.5427178e-07 0
0.36276481 5.5790615 -2.4386853e-07 0
0.33714989 7.2410641 -3.1651697e-07 0
0.3284201 5.5910625 -2.4439311e-07 0
0.33362159 7.2320614 -3.1612345e-07 0
0.33400989 7.1480618 -3.124517e-07 0
0.30350259 3.0670602 -1.3406546e-07 0
0.30863234 7.0700588 -3.0904209e-07 0
0.31783682 5.092062 -2.2258109e-07 0
0.30809307 6.9540615 -3.0397169e-07 0
0.26654246 4.80406 -2.0999214e-07 0
0.27957553 6.7890606 -2.9675925e-07 0
0.24859352 6.8110638 -2.9772104e-07 0
0.24623014 4.5140591 -1.9731579e-07 0
0.23226951 3.0490625 -1.3327876e-07 0
0.22291405 4.3070583 -1.8826749e-07 0
0.22267671 6.5890636 -2.8801711e-07 0
0.22007598 6.5790615 -2.8757992e-07 0
0.18696791 3.1080606 -1.3585765e-07 0
0.18995696 3.5900629 -1.5692663e-07 0
0.15544663 3.1020639 -1.3559551e-07 0
0.1528459 3.0930612 -1.35202e-07 0
0.14670217 3.1220605 -1.3646959e-07 0
0.13710937 6.1050625 -2.6686075e-07 0
0.11833558 3.1080606 -1.3585765e-07 0
0.11274579 3.1640604 -1.3830547e-07 0
0.11274579 3.6780603 -1.6077313e-07 0
0.084213562 3.1050622 -1.3572658e-07 0
0.11196917 5.8140621 -2.5414073e-07 0
0.078623779 3.1030633 -1.3563921e-07 0
0.064289518 1.7370584 -7.5929236e-08 0
0.081073552 3.0570581 -1.3362825e-07 0
0.072257377 4.8030605 -2.0994844e-07 0
0.0471025 3.0820596 -1.3472111e-07 0
0.070030265 4.8260632 -2.1095391e-07 0
0.037747052 4.8440609 -2.1174063e-07 0
0.010617094 0.41406038 -1.8099154e-08 0
0.0080163535 0.41206148 -1.8011779e-08 0
0.032157272 5.3720608 -2.3482023e-07 0
-0.012073327 -0.89393824 3.9075282e-08 0
-0.043055333 -0.86393946 3.7763993e-08 0
-0.037062563 -0.98794001 4.318423e-08 0
-0.061226964 3.0400598 -1.3288523e-07 0
-0.097101398 -2.1419394 9.3627143e-08 0
-0.038687505 5.2460613 -2.2931262e-07 0
-0.11182397 -2.4329398 1.0634717e-07 0
-0.11704012 -2.3459418 1.0254437e-07 0
-0.09833803 3.0890634 -1.3502725e-07 0
-0.096513905 5.1200619 -2.2380502e-07 0
-0.098877303 3.0530603 -1.334535e-07 0
-0.099114634 5.1080608 -2.2328044e-07 0
-0.16250734 -3.6699393 1.6041814e-07 0
-0.10171538 5.092062 -2.2258109e-07 0
-0.16809712 -3.6419394 1.5919423e-07 0
-0.15453948 -0.71193904 3.1119843e-08 0
-0.1910249 -4.2399387 1.853336e-07 0
-0.13821547 3.0800607 -1.3463374e-07 0
-0.17753896 0.65006047 -2.8415046e-08 0
-0.1490214 2.7330606 -1.1946587e-07 0
-0.16474326 4.9860592 -2.1794757e-07 0
-0.20369314 3.0530603 -1.334535e-07 0
-0.25013614 -4.2999363 1.8795619e-07 0
-0.20722143 3.0660608 -1.3402178e-07 0
-0.27321488 -5.9889393 2.6178486e-07 0
-0.2730639 -4.4609394 1.9499386e-07 0
-0.32672167 -7.0739384 3.0921166e-07 0
-0.23597635 4.9630642 -2.1694242e-07 0
-0.32749829 -5.0759373 2.2187626e-07 0
-0.33208877 -7.5029392 3.279639e-07 0
-0.27806619 3.0530603 -1.334535e-07 0
-0.38952687 -8.5089359 3.719374e-07 0
-0.283656 3.0690591 -1.3415284e-07 0
-0.36644813 -5.419939 2.3691307e-07 0
-0.39434004 -8.9369373 3.9064594e-07 0
-0.45177811 -9.9589405 4.3531912e-07 0
-0.31241089 4.9420605 -2.1602432e-07 0
-0.45138985 -9.9469395 4.3479454e-07 0
-0.31855461 4.955061 -2.165926e-07 0
-0.48328471 -10.405939 4.5485805e-07 0
-0.44419858 -6.1419392 2.6847269e-07 0
-0.50805128 -11.401941 4.9839468e-07 0
-0.51065201 -11.381937 4.9752026e-07 0
-0.38403228 4.9500637 -2.1637416e-07 0
-0.38602203 3.0390604 -1.3284155e-07 0
-0.38663301 4.955061 -2.165926e-07 0
-0.41830525 3.036062 -1.3271048e-07 0
-0.56209731 -12.39094 5.4162518e-07 0
-0.42350674 3.0530603 -1.334535e-07 0
-0.45541632 3.0670602 -1.3406546e-07 0
-0.55774415 -7.1749363 3.1362643e-07 0
-0.61654633 -11.907938 5.2051251e-07 0
-0.4921391 3.0470636 -1.3319138e-07 0
-0.49473983 3.0610635 -1.3380334e-07 0
-0.61778301 -7.6689396 3.3521999e-07 0
-0.49497718 4.9320583 -2.1558712e-07 0
-0.49435151 3.062063 -1.3384702e-07 0
-0.61739469 -7.6559391 3.3465173e-07 0
-0.49850547 4.9420605 -2.1602432e-07 0
-0.52925009 3.074064 -1.343716e-07 0
-0.67603123 -12.34894 5.3978931e-07 0
-0.50110614 4.955061 -2.165926e-07 0
-0.53208816 4.967062 -2.1711718e-07 0
-0.53561652 4.967062 -2.1711718e-07 0
-0.53821725 4.967062 -2.1711718e-07 0
-0.56919926 4.9680614 -2.1716086e-07 0
-0.56973851 4.9510632 -2.1641785e-07 0
-0.57233924 4.9310589 -2.1554342e-07 0
-0.60369492 4.9400616 -2.1593695e-07 0
-0.60684955 4.9390621 -2.1589327e-07 0
-0.60945034 4.9420605 -2.1602432e-07 0
-0.64080596 4.9440594 -2.161117e-07 0
-0.63835621 4.8690624 -2.1283348e-07 0
-0.66910082 3.4940622 -1.5273031e-07 0
-0.68850029 3.3290613 -1.4551789e-07 0
-0.68044603 3.1790597 -1.3896111e-07 0
-0.83345735 -9.7659397 4.2688279e-07 0
-0.87355745 -9.9889393 4.3663042e-07 0
-0.87316912 -9.9799366 4.3623689e-07 0
-0.90207499 -10.446939 4.5665024e-07 0
-0.90467572 -10.41894 4.5542632e-07 0
-0.91326922 -9.8179417 4.2915585e-07 0
-0.94715393 -12.373941 5.4088218e-07 0
-0.9467656 -12.363939 5.4044494e-07 0
-0.97644806 -11.030939 4.8217765e-07 0
-1.0075811 -11.395937 4.9813224e-07 0
-0.98450232 -9.1479359 3.9986898e-07 0
-1.0275915 -8.9329395 3.904712e-07 0
-1.0251417 -8.9379368 3.9068962e-07 0
-1.0784259 -12.002939 5.2466515e-07 0
-1.1099324 -12.381937 5.4123166e-07 0
-1.1263429 -12.132936 5.3034751e-07 0
-1.145442 -8.0019398 3.4977589e-07 0
-1.1506582 -7.9569416 3.4780896e-07 0
-1.1953489 -11.044939 4.8278963e-07 0
-1.1790248 -7.9329395 3.467598e-07 0
-1.2130605 -10.798937 4.7203653e-07 0
-1.238438 -10.794939 4.7186177e-07 0
-1.2075423 -7.5409412 3.2962501e-07 0
-1.2424409 -7.4259357 3.2459795e-07 0
-1.2450417 -7.3919392 3.2311192e-07 0
-1.2532469 -7.294939 3.1887191e-07 0
-1.2597643 -7.1829395 3.1397627e-07 0
-1.2649804 -7.1259403 3.1148474e-07 0
-1.2963361 -7.0719395 3.0912429e-07 0
-1.3054689 -6.9449406 3.0357299e-07 0
-1.3080696 -6.9049397 3.0182449e-07 0
-1.3419542 -9.2649403 4.0498341e-07 0
-1.3395909 -7.2939396 3.1882823e-07 0
-1.3531486 -9.096941 3.9763992e-07 0
-1.3306091 -7.3919392 3.2311192e-07 0
-1.3643428 -8.9329395 3.904712e-07 0
-1.3589756 -7.3829365 3.2271839e-07 0
-1.372548 -8.7919407 3.8430792e-07 0
-1.3621304 -7.3769398 3.2245629e-07 0
-1.3932487 -8.5579395 3.7407941e-07 0
-1.4014539 -8.3899403 3.6673595e-07 0
-1.4156371 -8.1979389 3.583433e-07 0
-1.4247699 -8.0689411 3.5270463e-07 0
-1.4385649 -7.881937 3.4453041e-07 0
-1.4704598 -7.4359379 3.2503516e-07 0
0.74760753 3.9020593 -1.7056443e-07 0
0.7450068 3.9270608 -1.7165728e-07 0
0.7414785 3.9420602 -1.7231292e-07 0
0.70750743 3.9870584 -1.7427986e-07 0
0.7049067 4.0230618 -1.7585361e-07 0
0.70137835 4.0470638 -1.7690277e-07 0
0.69616222 4.066061 -1.7773317e-07 0
0.66480654 4.0740643 -1.78083e-07 0
0.66127825 4.0930614 -1.789134e-07 0
0.64226711 3.2050607 -1.4009765e-07 0
0.66663069 7.6920605 -3.3623064e-07 0
0.63873881 3.1720636 -1.3865531e-07 0
0.63228601 7.7180614 -3.3736717e-07 0
0.63950074 3.1190622 -1.3633854e-07 0
0.61113411 3.097059 -1.3537675e-07 0
0.61336124 4.2220592 -1.8455206e-07 0
0.60500509 3.0940607 -1.3524568e-07 0
0.57402307 3.0800607 -1.3463374e-07 0
0.57049477 3.088064 -1.3498357e-07 0
0.56789404 3.0820596 -1.3472111e-07 0
0.53691202 3.0840585 -1.3480847e-07 0
0.53637272 3.0800607 -1.3463374e-07 0
0.53591269 6.7200603 -2.9374317e-07 0
0.53078294 3.0930612 -1.35202e-07 0
0.53117126 3.0840585 -1.3480847e-07 0
0.51298493 6.4420605 -2.8159141e-07 0
0.5103842 6.4510632 -2.8198494e-07 0
0.50424045 6.4690609 -2.8277162e-07 0
0.47288483 6.5010586 -2.8417028e-07 0
0.46766868 6.5270596 -2.8530684e-07 0
0.46414039 6.5530605 -2.8644337e-07 0
0.4585506 6.5760632 -2.8744884e-07 0
0.45632347 6.6050625 -2.8871645e-07 0
0.4210512 6.6250591 -2.8959053e-07 0
0.41882411 6.6510601 -2.9072706e-07 0
0.4074789 5.0530605 -2.2087629e-07 0
0.39866272 6.9710598 -3.0471469e-07 0
0.40786719 5.0000591 -2.1855952e-07 0
0.38831678 3.0780618 -1.3454635e-07 0
0.39905101 6.9250622 -3.0270408e-07 0
0.39851174 6.8720608 -3.0038731e-07 0
0.38493943 4.7620602 -2.0815627e-07 0
0.37014517 6.7730618 -2.9605994e-07 0
0.36516637 4.580061 -2.0020082e-07 0
0.36791804 6.7580624 -2.9540428e-07 0
0.35159403 3.0530603 -1.334535e-07 0
0.33862388 6.6880627 -2.9234451e-07 0
0.34821668 4.2330608 -1.8503296e-07 0
0.3029151 3.7750604 -1.6501313e-07 0
0.28557712 3.5080621 -1.5334227e-07 0
0.27477118 3.0840585 -1.3480847e-07 0
0.26264933 3.2470605 -1.4193353e-07 0
0.258661 6.0940609 -2.6637986e-07 0
0.23428276 3.2550638 -1.4228335e-07 0
0.25344485 6.1220608 -2.6760378e-07 0
0.22869296 3.2840631 -1.4355096e-07 0
0.2135821 3.5370615 -1.5460986e-07 0
0.20537689 3.6640604 -1.6016116e-07 0
0.20215049 5.8600597 -2.5615134e-07 0
0.19457094 3.2700632 -1.42939e-07 0
0.19403167 3.2270639 -1.4105945e-07 0
0.16865414 3.0900629 -1.3507093e-07 0
0.16787753 4.7040615 -2.0562106e-07 0
0.16904245 3.0500619 -1.3332244e-07 0
0.15369423 4.8990612 -2.1414476e-07 0
0.13515776 0.37605837 -1.6438033e-08 0
0.12695257 0.50706273 -2.2164416e-08 0
0.15707158 5.3410625 -2.3346526e-07 0
0.12179933 5.3670635 -2.346018e-07 0
0.081485346 -0.92593592 4.0473946e-08 0
0.078884609 -0.90793818 3.968724e-08 0
0.049590442 -0.90493983 3.9556177e-08 0
0.028201234 -2.2249396 9.7255196e-08 0
0.05494288 3.0550592 -1.3354088e-07 0
-0.0010929373 -2.2569373 9.8653864e-08 0
0.05134286 5.2160625 -2.2800134e-07 0
0.022048693 5.1660595 -2.2581563e-07 0
0.019821582 5.17906 -2.263839e-07 0
-0.046560161 -3.5719397 1.5613445e-07 0
-0.043182813 -3.6399405 1.5910685e-07 0
-0.066484213 -4.2859364 1.8734423e-07 0
-0.047020182 0.52206212 -2.2820061e-08 0
-0.075315066 -2.076937 9.0785797e-08 0
-0.045030423 3.0670602 -1.3406546e-07 0
-0.050548501 0.56106359 -2.4524867e-08 0
-0.05676394 2.7090585 -1.1841671e-07 0
-0.05078584 3.0750635 -1.3441529e-07 0
-0.048407771 4.9970608 -2.1842847e-07 0
-0.082141481 3.0520608 -1.3340981e-07 0
-0.13694067 -5.6889362 2.4867131e-07 0
-0.12875015 -4.3319416 1.8935518e-07 0
-0.15412769 -4.4109364 1.9280816e-07 0
-0.15389034 -5.9519367 2.6016741e-07 0
-0.19881831 -7.2109394 3.1520017e-07 0
-0.20234664 -7.1279392 3.1157211e-07 0
-0.21614163 -7.419939 3.2433584e-07 0
-0.14893502 4.9650631 -2.1702981e-07 0
-0.26459786 -8.5719395 3.7469138e-07 0
-0.1910249 3.0660608 -1.3402178e-07 0
-0.25050095 -5.346941 2.3372222e-07 0
-0.19362563 3.0820596 -1.3472111e-07 0
-0.30170894 -8.9299412 3.9034012e-07 0
-0.18788488 4.9490643 -2.1633046e-07 0
-0.19347468 4.9570599 -2.1667996e-07 0
-0.32684913 -9.9999409 4.3711131e-07 0
-0.36396021 -10.351938 4.524976e-07 0
-0.35101354 -6.1569386 2.6912832e-07 0
-0.26186967 3.0390604 -1.3284155e-07 0
-0.38573772 -11.429941 4.9961858e-07 0
-0.2644704 3.0530603 -1.334535e-07 0
-0.39035171 -6.4889393 2.8364053e-07 0
-0.41724432 -11.837938 5.1745269e-07 0
-0.26823607 4.955061 -2.165926e-07 0
-0.29959169 4.9830608 -2.1781651e-07 0
-0.44277284 -12.363939 5.4044494e-07 0
-0.33609179 3.0660608 -1.3402178e-07 0
-0.33570349 3.0690591 -1.3415284e-07 0
-0.43543062 -7.2069416 3.1502543e-07 0
-0.52597672 -11.874941 5.1907017e-07 0
-0.4984585 -7.6029377 3.3233496e-07 0
-0.55449426 -12.363939 5.4044494e-07 0
-0.554106 -12.350939 5.3987668e-07 0
-0.54851621 -11.502939 5.0280943e-07 0
-0.41053659 4.9490643 -2.1633046e-07 0
-0.41369128 4.955061 -2.165926e-07 0
-0.5439257 -8.3049412 3.6302052e-07 0
-0.41629201 4.9560604 -2.1663628e-07 0
-0.57229227 -8.2959385 3.6262699e-07 0
-0.44764766 4.967062 -2.1711718e-07 0
-0.45080233 4.9720592 -2.1733561e-07 0
