# .PCD v0.7 - Point Cloud Data file format
VERSION 0.7
FIELDS x y z intensity
SIZE 4 4 4 4
TYPE F F F F
COUNT 1 1 1 1
WIDTH 1283
HEIGHT 1
VIEWPOINT 0 0 0 1 0 0 0
POINTS 1283
DATA ascii
3.3704028 5.2062044 -3.7489542e-07 0
3.0579028 -8.2607965 2.274257e-07 0
3.4329028 5.2102022 -3.7780214e-07 0
3.1204028 -8.3297968 2.2770985e-07 0
3.4954028 5.2072039 -3.8040304e-07 0
3.5579028 5.2062044 -3.830913e-07 0
3.3079028 -7.9267979 2.018983e-07 0
3.4329028 -4.9547977 6.6524123e-08 0
3.5579028 -4.9677982 6.1628484e-08 0
3.6829028 -6.9877949 1.444614e-07 0
3.9329028 3.6262028 -3.30419e-07 0
3.7454028 -4.648798 3.9488654e-08 0
3.9954028 3.6292012 -3.3328203e-07 0
3.8079028 -6.6317997 1.2343645e-07 0
3.9329028 -6.6627979 1.1932751e-07 0
4.1829028 3.6302006 -3.4152163e-07 0
4.2454028 3.6321995 -3.4434095e-07 0
4.1829028 -5.7197971 6.7179755e-08 0
4.2454028 -3.9687979 -1.2090808e-08 0
4.2454028 -5.7237949 6.4622554e-08 0
4.4954028 5.2132006 -4.2437654e-07 0
4.5579028 5.2112017 -4.2702112e-07 0
4.4329028 -5.3857975 4.1652328e-08 0
4.6204028 5.2122011 -4.2979678e-07 0
4.6829028 5.2082033 -4.32354e-07 0
4.5579028 -3.6737998 -3.8645382e-08 0
4.7454028 5.1962023 -4.345614e-07 0
4.7454028 -4.4387989 -1.3402115e-08 0
4.9954028 3.6022007 -3.7581322e-07 0
5.0579028 3.6012013 -3.7850148e-07 0
4.9954028 -4.0517979 -4.1246295e-08 0
5.1204028 -2.8847983 -9.7721397e-08 0
5.2454028 -2.8857977 -1.0314163e-07 0
5.3079028 -3.1597998 -9.3896588e-08 0
5.4329028 3.610204 -3.9528675e-07 0
5.4954028 5.1982012 -4.674323e-07 0
5.4954028 3.6181996 -3.9836823e-07 0
5.6204028 5.1922045 -4.726341e-07 0
5.5579028 3.6122029 -4.0083808e-07 0
5.5579028 0.41720346 -2.6118019e-07 0
5.6829028 5.188199 -4.7519097e-07 0
5.6829028 3.346204 -3.9467483e-07 0
5.7454028 5.202199 -4.785349e-07 0
5.7454028 3.3192036 -3.9622657e-07 0
5.8079028 5.1702013 -4.7986816e-07 0
5.7454028 -2.1588004 -1.567754e-07 0
5.8704028 5.1972017 -4.8378035e-07 0
5.9954028 5.1731997 -4.8819516e-07 0
6.0579028 -1.2877982 -2.0850791e-07 0
6.1829028 -1.2717993 -2.1467118e-07 0
6.2454028 3.6152012 -4.3102071e-07 0
6.3704028 3.6122029 -4.3635356e-07 0
6.3079028 -0.90279615 -2.3626474e-07 0
6.3704028 -0.91779554 -2.3834104e-07 0
6.4954028 5.3232012 -5.166076e-07 0
6.4954028 3.6022007 -4.4138028e-07 0
6.5579028 5.3242006 -5.1938326e-07 0
6.6204028 -0.10979692 -2.8458766e-07 0
6.8704028 5.3592043 -5.3457313e-07 0
6.8704028 0.32320169 -3.1444247e-07 0
6.9329028 5.3602037 -5.373488e-07 0
6.9954028 3.6012013 -4.6319229e-07 0
7.1204028 3.6092045 -4.6900604e-07 0
7.0579028 1.0312018 -3.5358602e-07 0
7.1829028 1.0872016 -3.6149777e-07 0
7.3704028 1.5582023 -3.9028174e-07 0
7.4329028 5.4622011 -5.6366292e-07 0
7.4954028 3.6172001 -4.8574736e-07 0
7.5579028 5.4622011 -5.6912688e-07 0
7.5579028 3.6242039 -4.8878542e-07 0
7.6204028 2.2431996 -4.3115176e-07 0
7.6829028 5.4762011 -5.7520276e-07 0
7.6829028 2.2672017 -4.349329e-07 0
7.7454028 5.490201 -5.7854663e-07 0
7.8079028 5.1432009 -5.6611071e-07 0
7.9329028 3.8632023 -5.1562415e-07 0
7.9954028 5.6922045 -5.9830433e-07 0
7.9954028 3.8392003 -5.1730694e-07 0
8.0579023 5.6922045 -6.0103628e-07 0
8.0579023 3.8932011 -5.2239938e-07 0
8.1204023 3.9482014 -5.2753546e-07 0
8.1829023 3.9322026 -5.2956813e-07 0
8.3079023 3.9222004 -5.3459479e-07 0
8.3079023 3.9202015 -5.3450742e-07 0
8.4329023 3.9072011 -5.3940312e-07 0
8.4954023 6.0901995 -6.3755692e-07 0
8.4954023 3.9572041 -5.4432076e-07 0
8.5579023 6.1012011 -6.4076983e-07 0
8.5579023 3.8882039 -5.4403665e-07 0
8.6204023 6.1982012 -6.4774179e-07 0
8.6204023 3.721204 -5.3946877e-07 0
8.6829023 6.2122011 -6.5108566e-07 0
8.7454023 3.7802022 -5.475116e-07 0
8.8079023 6.2222033 -6.569868e-07 0
8.8079023 3.5972035 -5.4224444e-07 0
8.8704023 6.3232012 -6.6413349e-07 0
8.8704023 4.6702013 -5.9187863e-07 0
8.8704023 3.5812047 -5.4427704e-07 0
8.9329023 6.3612032 -6.6852664e-07 0
8.9954023 6.4062014 -6.7322549e-07 0
9.0579023 6.4502001 -6.7788073e-07 0
9.1204023 4.9931993 -6.1692515e-07 0
9.1204023 6.4972048 -6.8266729e-07 0
9.1829023 6.5452013 -6.8749728e-07 0
9.3079023 6.5312014 -6.9234926e-07 0
9.3079023 3.6242039 -5.6528035e-07 0
9.3704023 6.5322008 -6.9512487e-07 0
9.3704023 3.6412022 -5.6875535e-07 0
9.4329023 5.5422029 -6.5458266e-07 0
9.4954023 3.610204 -5.7286428e-07 0
9.5579023 5.6092043 -6.6297531e-07 0
9.6204023 5.6862001 -6.690729e-07 0
9.6829023 6.4791994 -7.0646797e-07 0
9.7454023 6.4762011 -7.090689e-07 0
9.8079023 6.4632006 -7.1123253e-07 0
9.8704023 6.3681993 -7.0981184e-07 0
9.9329023 6.4732027 -7.1713367e-07 0
9.9954023 6.5122042 -7.2157047e-07 0
10.057902 3.6092045 -5.9740825e-07 0
10.120402 6.5332003 -7.2795217e-07 0
10.120402 4.5332003 -6.4052938e-07 0
10.182902 4.5742006 -6.4505349e-07 0
10.682902 7.1562014 -7.7977199e-07 0
10.745402 3.6002018 -6.270663e-07 0
10.807902 3.6012013 -6.2984196e-07 0
10.932902 3.6142018 -6.3587419e-07 0
10.995402 3.6142018 -6.3860614e-07 0
11.307902 4.1242037 -6.7455881e-07 0
11.432902 3.6422017 -6.5895375e-07 0
11.495402 3.6542027 -6.6221031e-07 0
12.182902 3.6262028 -6.9103794e-07 0
12.245402 3.6302006 -6.9394468e-07 0
12.307902 3.6282017 -6.9658927e-07 0
12.432902 3.636205 -7.0240304e-07 0
12.557902 3.6392033 -7.0799797e-07 0
12.620402 3.6461995 -7.110358e-07 0
-6.1295962 -0.81180036 3.0341812e-07 0
-5.9420962 -1.1607993 3.1047745e-07 0
-5.6920962 -1.6747992 3.2201723e-07 0
-5.6295962 -1.9867957 3.3292309e-07 0
-5.5670962 -2.0847952 3.3447483e-07 0
-5.4420962 -2.1588004 3.3224578e-07 0
-5.3795962 -2.2327979 3.3274833e-07 0
-5.3170962 -2.2327979 3.3001638e-07 0
-5.2545962 -2.4607947 3.3725047e-07 0
-5.1920962 -2.6077979 3.4094421e-07 0
-5.1295962 -2.6957953 3.4205874e-07 0
-5.0670962 -2.8017981 3.4396032e-07 0
-4.9420962 -2.8847983 3.4212445e-07 0
-4.8795962 -2.9857962 3.4380724e-07 0
-4.8170962 -3.0758002 3.4500948e-07 0
-4.7545962 -3.1617987 3.4603664e-07 0
-4.6920962 -3.2727988 3.4815662e-07 0
-4.6295962 -3.3617957 3.4931486e-07 0
-4.5045962 -3.3887961 3.4503114e-07 0
-4.4420962 -3.5377982 3.4881228e-07 0
-4.5045962 -4.8157978 4.0740738e-07 0
-4.3795962 -4.834795 4.0277385e-07 0
-4.3170962 -5.023798 4.0830349e-07 0
-3.8795967 -4.2527943 3.5547811e-07 0
-3.9420967 -6.0387974 4.3627875e-07 0
-3.7545967 -4.4027958 3.5657098e-07 0
-3.6920967 -6.3717976 4.3990678e-07 0
-3.3170967 -7.285799 4.634673e-07 0
-3.1295967 -5.2047977 3.6430797e-07 0
-3.1295967 -7.7017994 4.7345537e-07 0
-2.9420967 -5.4267979 3.6581602e-07 0
-2.8795967 -8.5217981 4.9837081e-07 0
-2.7545967 -8.5407953 4.9373728e-07 0
-2.3795967 -6.1497974 3.7283166e-07 0
-2.0670967 -6.4407978 3.718919e-07 0
-2.2545967 -9.7377939 5.2420404e-07 0
-1.9420967 -10.343797 5.3703343e-07 0
-1.6295967 -7.110796 3.8205471e-07 0
-1.5670967 -7.1257954 3.7997839e-07 0
-1.7545967 -11.008798 5.5790571e-07 0
-1.5045967 -11.347795 5.6179584e-07 0
-1.2545967 -7.4687977 3.8131168e-07 0
-1.2545967 -10.913796 5.3189734e-07 0
-0.87959677 -8.0817957 3.9171491e-07 0
-0.75459677 -8.1077967 3.8738753e-07 0
-0.87959677 -10.543794 4.9933226e-07 0
-0.87959677 -11.360795 5.3504448e-07 0
-0.81709677 -11.371797 5.3279342e-07 0
-0.4420968 -8.4547968 3.8889556e-07 0
-0.56709677 -10.013795 4.6250545e-07 0
-0.19209681 -9.6347971 4.2954719e-07 0
-0.067096829 -8.9447947 3.9392228e-07 0
0.057903163 -11.330796 4.9275383e-07 0
0.12040316 -11.348794 4.9080859e-07 0
0.30790314 -8.898797 3.755199e-07 0
0.43290314 -9.5927973 4.0039168e-07 0
0.68290311 -8.5277948 3.4291111e-07 0
0.74540311 -8.5157938 3.3965455e-07 0
0.68290311 -10.037797 4.0891541e-07 0
0.74540311 -10.053796 4.0688275e-07 0
1.1204031 -7.9937992 3.0044566e-07 0
1.0579031 -11.355798 4.501353e-07 0
1.1204031 -11.355798 4.4740332e-07 0
1.1829031 -11.357797 4.4475874e-07 0
1.4329031 -7.5707951 2.6829576e-07 0
1.4954031 -7.5677967 2.6543276e-07 0
1.3704031 -10.914796 4.1719863e-07 0
1.4954031 -10.922799 4.1208457e-07 0
1.8704031 -6.9967976 2.2408182e-07 0
1.6829031 -11.390794 4.2434539e-07 0
1.8079031 -11.354798 4.1730803e-07 0
2.3704028 3.7291996 -2.666221e-07 0
1.9954031 -10.899796 3.8922337e-07 0
2.4954028 3.8592045 -2.7776872e-07 0
2.5579028 3.9322026 -2.8369152e-07 0
2.2454028 -6.5567951 1.8845694e-07 0
2.6204028 4.1012011 -2.9381064e-07 0
2.2454028 -10.440797 3.5823203e-07 0
2.6829028 4.1712008 -2.9960239e-07 0
2.7454028 4.2981997 -3.0788567e-07 0
2.8704028 4.4072008 -3.1811416e-07 0
2.6204028 -6.0377979 1.4937908e-07 0
2.4954028 -9.6217966 3.1150455e-07 0
2.9329028 4.5201998 -3.2578549e-07 0
2.6829028 -6.0107975 1.454669e-07 0
2.9954028 4.6252031 -3.3310727e-07 0
3.0579028 4.7151995 -3.3977309e-07 0
2.7454028 -9.1407938 2.7955141e-07 0
3.1829028 4.8372011 -3.5056991e-07 0
3.2454028 4.9452028 -3.5802276e-07 0
3.0579028 -5.5667973 1.0966725e-07 0
3.3079028 5.0262041 -3.6429537e-07 0
3.1204028 -5.5657978 1.068916e-07 0
2.9954028 -8.3417978 2.3369834e-07 0
3.3704028 5.1232042 -3.7126736e-07 0
3.1204028 -8.3837976 2.300703e-07 0
3.4954028 5.188199 -3.795723e-07 0
3.4329028 3.6982014 -3.1171049e-07 0
3.4954028 3.7952015 -3.1868245e-07 0
3.6204028 3.8821995 -3.2794918e-07 0
3.6829028 3.9762013 -3.3479009e-07 0
3.7454028 4.1041994 -3.4311702e-07 0
3.8079028 4.1842012 -3.4934595e-07 0
3.8704028 4.3062029 -3.5741078e-07 0
3.9954028 4.3951998 -3.6676488e-07 0
4.0579028 4.4791994 -3.7316863e-07 0
4.1204028 4.5722017 -3.7996583e-07 0
4.1829028 4.6862001 -3.8768081e-07 0
4.3079028 4.7952013 -3.9790933e-07 0
4.3704028 4.9202013 -4.0610522e-07 0
4.4329028 5.0901995 -4.1626805e-07 0
4.4954028 5.1142015 -4.2004916e-07 0
4.5579028 5.188199 -4.2601567e-07 0
4.5579028 3.7232029 -3.6197866e-07 0
4.4329028 -5.2387943 3.522662e-08 0
4.6829028 5.1932039 -4.3169837e-07 0
4.6204028 3.7812016 -3.6724583e-07 0
4.7454028 5.1932039 -4.3443032e-07 0
4.7454028 3.7562001 -3.7161689e-07 0
4.8079028 5.1942034 -4.3720598e-07 0
4.8079028 3.6852009 -3.7124539e-07 0
4.8704028 5.1932039 -4.3989422e-07 0
4.8704028 3.6731999 -3.7345274e-07 0
4.9329028 5.1952028 -4.427136e-07 0
4.9329028 3.6642048 -3.7579153e-07 0
5.0579028 5.1982012 -4.4830858e-07 0
5.1204028 5.1982012 -4.5104053e-07 0
5.1829028 5.1982012 -4.5377249e-07 0
5.2454028 5.2002001 -4.5659181e-07 0
5.3079028 5.2062044 -4.5958626e-07 0
5.4329028 5.2062044 -4.6505016e-07 0
5.4954028 5.2102022 -4.6795688e-07 0
5.5579028 5.2092028 -4.7064515e-07 0
5.6204028 5.2122011 -4.7350818e-07 0
5.6829028 5.2102022 -4.7615276e-07 0
5.7454028 5.2142 -4.7905951e-07 0
5.8704028 5.2242022 -4.8496059e-07 0
5.9329028 5.2372026 -4.8826087e-07 0
5.9954028 5.2532015 -4.9169216e-07 0
6.0579028 5.2652025 -4.9494867e-07 0
6.1204028 5.2762041 -4.9816151e-07 0
6.2454028 5.2832003 -5.0393123e-07 0
6.3079028 5.2952013 -5.0718779e-07 0
6.3079028 3.6152012 -4.3375269e-07 0
6.3704028 5.3082018 -5.1048801e-07 0
6.3704028 3.6012013 -4.3587266e-07 0
6.4329028 5.3192034 -5.1370091e-07 0
6.4954028 5.327199 -5.1678239e-07 0
6.6204028 5.3372011 -5.2268354e-07 0
6.6204028 -0.25279465 -2.7833704e-07 0
6.6829028 5.3512011 -5.2602741e-07 0
6.7454028 5.3632021 -5.2928397e-07 0
6.8079028 5.3752031 -5.3254053e-07 0
6.8704028 5.3821993 -5.3557824e-07 0
6.9329028 0.45920327 -3.2311922e-07 0
6.9954028 5.3922014 -5.4147938e-07 0
6.9954028 0.44820169 -3.2537031e-07 0
7.0579028 5.4062014 -5.4482331e-07 0
7.0579028 0.94820166 -3.4995796e-07 0
7.1204028 5.4192019 -5.4812352e-07 0
7.1829028 5.415204 -5.5068074e-07 0
7.1829028 3.6252034 -4.7243736e-07 0
7.2454028 5.4162035 -5.534564e-07 0
7.3079028 3.6272023 -4.7798869e-07 0
7.3079028 5.4062014 -5.5575117e-07 0
7.3704028 3.6262028 -4.8067693e-07 0
7.4329028 1.7082038 -3.9957047e-07 0
7.5579028 5.4892015 -5.7030707e-07 0
7.6204028 2.1032002 -4.250322e-07 0
7.6204028 5.4972048 -5.7338889e-07 0
7.6829028 5.5032015 -5.7638294e-07 0
7.8079028 5.4101992 -5.7778158e-07 0
7.8704028 5.6122026 -5.8934347e-07 0
7.9329028 5.6142015 -5.9216279e-07 0
7.9329028 3.9482014 -5.1933955e-07 0
7.9954028 2.9202015 -4.7713621e-07 0
7.9954028 5.7122011 -5.9917841e-07 0
8.0579023 3.1442006 -4.896595e-07 0
8.0579023 5.7512026 -6.0361521e-07 0
8.1204023 3.6562016 -5.1477173e-07 0
8.1204023 5.7812014 -6.0765842e-07 0
8.1829023 3.7282002 -5.2065087e-07 0
8.2454023 5.8732042 -6.1714394e-07 0
8.2454023 3.822202 -5.2749181e-07 0
8.3079023 5.9012041 -6.2109984e-07 0
8.3079023 3.7392018 -5.2659567e-07 0
8.3704023 5.9582033 -6.263233e-07 0
8.3704023 3.8922017 -5.3601548e-07 0
8.4329023 5.9892015 -6.3041023e-07 0
8.4954023 3.9002049 -5.4182925e-07 0
8.4954023 5.9882021 -6.3309847e-07 0
8.6204023 5.8882036 -6.3419134e-07 0
8.6204023 3.6562016 -5.3662745e-07 0
8.6829023 5.9312029 -6.3880282e-07 0
8.6829023 3.6312001 -5.3826653e-07 0
8.7454023 5.9062014 -6.4044195e-07 0
8.8079023 3.6252034 -5.4346833e-07 0
8.8079023 5.9091997 -6.4330499e-07 0
8.8704023 3.6142018 -5.4571939e-07 0
8.8704023 5.8872042 -6.4507549e-07 0
8.9329023 3.6112034 -5.4832032e-07 0
8.9329023 5.8512011 -6.4623373e-07 0
8.9954023 3.6132023 -5.5113964e-07 0
9.0579023 5.0122042 -6.1502396e-07 0
9.1204023 5.8182039 -6.529873e-07 0
9.1829023 3.6002018 -5.5876728e-07 0
9.1829023 5.7952013 -6.5471374e-07 0
9.2454023 5.7952013 -6.5744575e-07 0
9.3079023 5.7711992 -6.5912855e-07 0
9.4329023 5.7421999 -6.6332484e-07 0
9.4954023 5.7812014 -6.6776158e-07 0
9.5579023 5.7632036 -6.6970688e-07 0
9.6204023 5.8182039 -6.7484297e-07 0
9.9329023 6.2151995 -7.05856e-07 0
10.120402 3.6262028 -6.0088325e-07 0
10.182902 4.5862017 -6.455781e-07 0
10.307902 3.6282017 -6.0916648e-07 0
10.370402 3.6282017 -6.1189849e-07 0
10.432902 3.6282017 -6.1463038e-07 0
10.495402 3.6321995 -6.1753713e-07 0
10.620402 3.6282017 -6.2282629e-07 0
10.682902 3.6312001 -6.2568932e-07 0
11.307902 4.1601992 -6.7613223e-07 0
11.432902 4.0302019 -6.7591378e-07 0
11.495402 3.636205 -6.614236e-07 0
11.557902 3.6422017 -6.6441766e-07 0
11.620402 3.6412022 -6.6710595e-07 0
11.745402 3.6422017 -6.7261357e-07 0
11.807902 3.6442006 -6.7543289e-07 0
11.870402 3.6452 -6.7820855e-07 0
11.932902 3.6432011 -6.8085319e-07 0
11.995402 3.6461995 -6.8371617e-07 0
12.057902 3.6442006 -6.8636075e-07 0
12.182902 3.6542027 -6.9226189e-07 0
12.245402 3.6562016 -6.9508121e-07 0
12.370402 3.6542027 -7.004578e-07 0
12.432902 3.6542027 -7.0318976e-07 0
12.557902 3.6502049 -7.0847886e-07 0
12.620402 3.6552022 -7.1142932e-07 0
12.682902 3.6522038 -7.1403019e-07 0
-5.9420962 -1.190798 3.1178874e-07 0
-5.7545962 -1.5827963 3.2072765e-07 0
-5.5045962 -2.303797 3.4131574e-07 0
-5.3795962 -2.2467978 3.3336028e-07 0
-5.3170962 -2.2467978 3.3062832e-07 0
-5.2545962 -2.2637961 3.2863937e-07 0
-5.1920962 -2.6627982 3.4334835e-07 0
-5.1295962 -2.7077963 3.4258332e-07 0
-5.0670962 -2.7447989 3.4146879e-07 0
-5.0045962 -2.8617957 3.4385096e-07 0
-4.8795962 -2.9467947 3.4210245e-07 0
-4.8170962 -3.0357993 3.4326098e-07 0
-4.7545962 -3.1357977 3.4490012e-07 0
-4.6920962 -3.2157996 3.4566511e-07 0
-4.6295962 -3.315798 3.4730425e-07 0
-4.5670962 -3.402796 3.4837507e-07 0
-4.5045962 -3.5007956 3.4992681e-07 0
-4.3795962 -3.579798 3.4791617e-07 0
-4.3170962 -3.716799 3.5117273e-07 0
-4.2545962 -3.7467978 3.4975204e-07 0
-4.1920962 -3.8857977 3.5309597e-07 0
-3.8795967 -4.2917957 3.571829e-07 0
-3.8170967 -4.3297977 3.5611208e-07 0
-3.9420967 -6.0657978 4.3745899e-07 0
-3.7545967 -4.3577976 3.5460403e-07 0
-3.8170967 -6.0517979 4.3138309e-07 0
-3.6920967 -6.3297977 4.3807091e-07 0
-3.3795967 -7.3067951 4.6711705e-07 0
-3.1295967 -5.2307987 3.6544452e-07 0
-3.0670967 -5.2347965 3.6288731e-07 0
-3.1295967 -7.6807957 4.7253727e-07 0
-2.9420967 -5.4037952 3.6481055e-07 0
-2.7545967 -8.5277948 4.9316901e-07 0
-2.3795967 -6.1787968 3.7409927e-07 0
-2.5670967 -9.0067987 5.0591103e-07 0
-2.3170967 -6.1767979 3.7127992e-07 0
-2.0670967 -6.4507999 3.7232911e-07 0
-2.2545967 -9.7777948 5.2595254e-07 0
-2.1920967 -9.8127985 5.2475065e-07 0
-1.9420967 -10.321794 5.3607164e-07 0
-1.5670967 -7.122797 3.7984734e-07 0
-1.7545967 -11.010797 5.5799308e-07 0
-1.6920967 -11.040795 5.5657239e-07 0
-1.5045967 -11.371797 5.62845e-07 0
-1.2545967 -7.4667988 3.8122431e-07 0
-1.4420967 -11.357797 5.5950113e-07 0
-1.2545967 -10.925797 5.3242189e-07 0
-0.81709677 -8.0797968 3.8889556e-07 0
-0.87959677 -10.551797 4.9968207e-07 0
-0.81709677 -10.540795 4.9646923e-07 0
-0.75459677 -11.357797 5.2944955e-07 0
-0.69209677 -11.357797 5.267176e-07 0
-0.50459677 -8.4607935 3.9188967e-07 0
-0.56709677 -10.037797 4.6355464e-07 0
-0.067096829 -8.9567957 3.9444686e-07 0
0.12040316 -11.343797 4.9059014e-07 0
0.30790314 -8.9407969 3.7735578e-07 0
0.37040314 -8.9437952 3.7475488e-07 0
0.43290314 -9.5787973 3.9977974e-07 0
0.74540311 -8.5017939 3.390426e-07 0
0.74540311 -10.047799 4.0662064e-07 0
1.0579031 -8.0277948 3.0466364e-07 0
1.0579031 -11.360795 4.503537e-07 0
1.1204031 -11.357797 4.4749069e-07 0
1.1829031 -11.357797 4.4475874e-07 0
1.4954031 -7.5437946 2.6438357e-07 0
1.4954031 -10.917794 4.1186578e-07 0
1.8704031 -7.0107975 2.2469376e-07 0
1.8079031 -11.371797 4.1805103e-07 0
1.9329031 -10.928796 3.9322293e-07 0
2.2454028 -6.5427952 1.8784499e-07 0
2.3704028 -6.5478001 1.8259982e-07 0
2.2454028 -10.426797 3.5762008e-07 0
2.4954028 -9.6457987 3.1255371e-07 0
2.6829028 -6.0287952 1.4625358e-07 0
2.7454028 -9.1357965 2.7933297e-07 0
2.8704028 -9.1387949 2.7400012e-07 0
3.1204028 -5.5437946 1.0592981e-07 0
3.1204028 -8.3707972 2.2950201e-07 0
3.4954028 3.7812016 -3.1807048e-07 0
3.5579028 3.7952015 -3.214144e-07 0
3.4329028 -5.0267963 6.9671287e-08 0
3.3704028 -7.8307972 1.9497001e-07 0
3.6829028 3.9371998 -3.3308527e-07 0
3.7454028 4.0602007 -3.4119375e-07 0
3.8079028 4.1562014 -3.4812206e-07 0
3.6204028 -7.0857944 1.5147705e-07 0
3.8704028 4.2532015 -3.5509402e-07 0
3.9954028 4.3482027 -3.6471059e-07 0
4.0579028 4.4482012 -3.7181366e-07 0
3.9329028 -4.523798 2.582884e-08 0
4.1204028 4.5562029 -3.7926651e-07 0
3.9329028 -6.5217991 1.1316423e-07 0
4.1829028 4.6572008 -3.8641321e-07 0
4.2454028 4.7552004 -3.9342888e-07 0
4.3704028 4.8372011 -4.0247716e-07 0
4.2454028 -4.0677967 -7.7634326e-09 0
4.4329028 4.9492006 -4.101048e-07 0
4.4954028 5.0602007 -4.1768874e-07 0
4.5579028 5.1022005 -4.2225656e-07 0
4.4329028 -5.2187977 3.4352539e-08 0
4.6204028 3.7431996 -3.655847e-07 0
4.5579028 -5.2197971 2.8932305e-08 0
4.7454028 5.1382036 -4.3202618e-07 0
4.8079028 3.9622014 -3.8335344e-07 0
4.8704028 4.0452013 -3.8971345e-07 0
4.9329028 4.1512041 -3.9707896e-07 0
4.9954028 4.2502031 -4.0413829e-07 0
5.0579028 4.3411989 -4.108478e-07 0
5.1829028 4.4622011 -4.2160093e-07 0
5.2454028 4.5392046 -4.2769881e-07 0
5.3079028 4.6442003 -4.3502027e-07 0
5.3704028 4.7652025 -4.4304142e-07 0
5.4954028 4.8592043 -4.5261427e-07 0
5.5579028 5.0012026 -4.6155316e-07 0
5.6204028 5.1092043 -4.6900607e-07 0
5.6829028 5.1802034 -4.7484147e-07 0
5.6829028 3.7362034 -4.1172223e-07 0
5.7454028 5.1862001 -4.7783556e-07 0
5.7454028 3.7362034 -4.1445421e-07 0
5.8079028 5.1982012 -4.8109212e-07 0
5.8079028 3.7522023 -4.1788547e-07 0
5.9329028 5.2122011 -4.8716799e-07 0
5.9954028 5.2332048 -4.9081802e-07 0
5.9954028 3.6731999 -4.2262806e-07 0
6.0579028 5.2421999 -4.9394316e-07 0
6.0579028 3.6262028 -4.2330572e-07 0
6.1204028 5.2571993 -4.973308e-07 0
6.1204028 3.6372044 -4.2651857e-07 0
6.1829028 5.2752047 -5.0084981e-07 0
6.3079028 5.290204 -5.069694e-07 0
6.3704028 5.2991991 -5.1009454e-07 0
6.4329028 5.313199 -5.1343841e-07 0
6.4954028 5.3252001 -5.1669497e-07 0
6.5579028 5.3411989 -5.2012626e-07 0
6.6829028 5.3522005 -5.2607112e-07 0
6.7454028 5.3671999 -5.294587e-07 0
6.8079028 5.3782015 -5.3267155e-07 0
6.8704028 5.3882036 -5.3584074e-07 0
6.9329028 5.4002047 -5.3909724e-07 0
7.0579028 5.4062014 -5.4482331e-07 0
7.1204028 5.415204 -5.4794879e-07 0
7.1829028 5.4231997 -5.5103027e-07 0
7.2454028 5.4342012 -5.5424312e-07 0
7.3079028 5.4472017 -5.5754333e-07 0
7.3704028 3.6142018 -4.8015232e-07 0
7.3704028 5.4572039 -5.6071252e-07 0
7.4954028 5.4632006 -5.6643859e-07 0
7.4954028 1.6872001 -4.0138434e-07 0
7.5579028 5.4782 -5.6982617e-07 0
7.5579028 2.0872014 -4.2160093e-07 0
7.6204028 5.4872026 -5.7295165e-07 0
7.6829028 5.4912004 -5.7585839e-07 0
7.7454028 5.490201 -5.7854663e-07 0
7.8704028 5.5892 -5.8833791e-07 0
7.9329028 5.6242037 -5.9259997e-07 0
7.9954028 5.6712008 -5.9738625e-07 0
8.0579023 5.7262011 -6.0252233e-07 0
8.1204023 5.7652025 -6.0695913e-07 0
8.1829023 3.7161992 -5.2012632e-07 0
8.1829023 5.804204 -6.1139588e-07 0
8.2454023 3.8232014 -5.2753546e-07 0
8.3079023 5.8362017 -6.1825847e-07 0
8.3079023 3.7952015 -5.2904352e-07 0
8.3704023 3.8802006 -5.3549093e-07 0
8.4954023 3.8592045 -5.4003704e-07 0
8.5579023 3.6282017 -5.3267161e-07 0
8.5579023 5.8951998 -6.317652e-07 0
8.6829023 5.7752047 -6.3198399e-07 0
8.6829023 3.5862019 -5.3629958e-07 0
8.7454023 5.6422014 -6.2890217e-07 0
8.7454023 3.6142018 -5.4025548e-07 0
8.8704023 3.6302006 -5.4641873e-07 0
8.9329023 3.6372044 -5.4945684e-07 0
8.9954023 3.6372044 -5.5218879e-07 0
9.0579023 4.929204 -6.1139588e-07 0
9.1204023 5.0042009 -6.1740604e-07 0
9.2454023 3.5452015 -5.590951e-07 0
9.2454023 5.2262011 -6.3257392e-07 0
9.3079023 5.3411989 -6.4033259e-07 0
9.4329023 5.4872026 -6.5217853e-07 0
9.4954023 5.5872011 -6.5928157e-07 0
9.5579023 5.7092028 -6.673464e-07 0
9.9954023 6.1842012 -7.0723297e-07 0
10.057902 3.5911992 -5.9662119e-07 0
10.120402 3.6032002 -5.9987775e-07 0
10.182902 4.6102037 -6.4662726e-07 0
10.307902 3.6262028 -6.0907911e-07 0
10.370402 3.6282017 -6.1189849e-07 0
10.432902 3.6321995 -6.1480517e-07 0
10.495402 3.6402028 -6.1788694e-07 0
10.557902 3.6382039 -6.2053152e-07 0
10.682902 3.6372044 -6.2595177e-07 0
10.745402 3.6402028 -6.288148e-07 0
10.807902 3.6252034 -6.3089112e-07 0
10.870402 3.6422017 -6.3436613e-07 0
10.932902 3.6321995 -6.366609e-07 0
11.057902 3.6312001 -6.4208109e-07 0
11.120402 3.6422017 -6.4529394e-07 0
11.182902 3.6422017 -6.4802589e-07 0
11.245402 3.6512043 -6.5115142e-07 0
11.307902 3.6542027 -6.5401446e-07 0
11.370402 4.0032015 -6.7200159e-07 0
11.495402 3.6532032 -6.621666e-07 0
11.557902 3.6432011 -6.6446137e-07 0
11.620402 3.6461995 -6.673244e-07 0
11.682902 3.6512043 -6.7027514e-07 0
11.807902 3.6522038 -6.7578276e-07 0
11.870402 3.6522038 -6.7851465e-07 0
11.932902 3.6512043 -6.8120301e-07 0
11.995402 3.6442006 -6.836288e-07 0
12.057902 3.6502049 -6.8662325e-07 0
12.182902 3.6512043 -6.9213081e-07 0
12.245402 3.6562016 -6.9508121e-07 0
12.307902 3.6562016 -6.9781322e-07 0
12.370402 3.6601994 -7.0071991e-07 0
12.432902 3.6682026 -7.0380167e-07 0
12.557902 3.6702015 -7.09353e-07 0
12.620402 3.6692021 -7.120413e-07 0
12.682902 3.6722004 -7.1490433e-07 0
-5.8170962 -1.5847952 3.2354697e-07 0
-5.5670962 -1.9827979 3.3001638e-07 0
-5.5045962 -2.2877982 3.406164e-07 0
-5.4420962 -2.2607977 3.367042e-07 0
-5.3795962 -2.2317984 3.3270464e-07 0
-5.3170962 -2.2157996 3.2927335e-07 0
-5.2545962 -2.6347983 3.448564e-07 0
-5.1920962 -2.6367972 3.4221182e-07 0
-5.0670962 -2.7347968 3.4103158e-07 0
-5.0045962 -2.829798 3.4245227e-07 0
-4.9420962 -2.9177954 3.435668e-07 0
-4.8795962 -2.9967978 3.4428814e-07 0
-4.8170962 -3.0987952 3.4601462e-07 0
-4.7545962 -3.190798 3.4730425e-07 0
-4.6295962 -3.2747977 3.4551203e-07 0
-4.5670962 -3.3467963 3.4592728e-07 0
-4.5045962 -3.4557974 3.4795988e-07 0
-4.4420962 -3.5937979 3.512601e-07 0
-4.3795962 -3.6227973 3.4979576e-07 0
-4.3170962 -3.7247946 3.5152226e-07 0
-4.2545962 -3.8757956 3.5539074e-07 0
-3.9420967 -4.273798 3.5912817e-07 0
-3.8795967 -4.2877979 3.5700816e-07 0
-3.7545967 -4.384798 3.5578427e-07 0
-3.8795967 -6.0687962 4.3485807e-07 0
-3.7545967 -6.3297977 4.4080286e-07 0
-3.3795967 -7.2887974 4.6633033e-07 0
-3.3170967 -7.3017979 4.6416665e-07 0
-3.1295967 -5.2307987 3.6544452e-07 0
-3.1920967 -7.7037983 4.7627469e-07 0
-2.9420967 -5.4127979 3.6520407e-07 0
-3.1295967 -7.6777973 4.7240621e-07 0
-2.8795967 -5.424799 3.6299667e-07 0
-2.8170967 -8.5127954 4.9524533e-07 0
-2.3795967 -6.1797962 3.7414293e-07 0
-2.5045967 -9.037797 5.0453406e-07 0
-2.1295967 -6.4677982 3.7580406e-07 0
-2.3170967 -9.773797 5.2850976e-07 0
-2.0670967 -6.4547977 3.7250385e-07 0
-2.2545967 -9.773797 5.2577781e-07 0
-2.0045967 -10.315797 5.3854154e-07 0
-1.9420967 -10.340798 5.3690241e-07 0
-1.6295967 -7.1177998 3.8236084e-07 0
-1.6920967 -11.028794 5.5604784e-07 0
-1.5670967 -11.371797 5.6557695e-07 0
-1.3170967 -7.4787998 3.8448084e-07 0
-1.5045967 -11.359796 5.6232045e-07 0
-1.3170967 -10.951798 5.3629049e-07 0
-1.1920967 -10.940797 5.3034563e-07 0
-0.81709677 -8.0797968 3.8889556e-07 0
-0.87959677 -10.537797 4.9907015e-07 0
-0.81709677 -11.360795 5.3231253e-07 0
-0.75459677 -11.371797 5.3006147e-07 0
-0.4420968 -8.4827967 3.9011948e-07 0
-0.12959681 -8.9657984 3.9757234e-07 0
-0.067096829 -8.9687967 3.9497144e-07 0
0.12040316 -11.367799 4.916393e-07 0
0.18290316 -11.381799 4.8951927e-07 0
0.37040314 -8.9287958 3.7409924e-07 0
0.43290314 -9.5907984 4.0030432e-07 0
0.68290311 -8.5027933 3.4181826e-07 0
0.74540311 -10.047799 4.0662064e-07 0
0.80790311 -10.065797 4.0467538e-07 0
1.0579031 -8.0107965 3.0392064e-07 0
0.99540311 -11.357797 4.5295462e-07 0
1.1204031 -11.357797 4.4749069e-07 0
1.1829031 -10.525796 4.083908e-07 0
1.4954031 -7.5347996 2.6399039e-07 0
1.5579031 -7.523798 2.6077754e-07 0
1.4329031 -10.926797 4.1499129e-07 0
1.8079031 -7.0437946 2.2886809e-07 0
1.8704031 -7.0347996 2.2574295e-07 0
1.7454031 -11.357797 4.2017109e-07 0
2.0579028 -10.959794 3.8911401e-07 0
2.3079028 -6.5487995 1.8537547e-07 0
2.1829028 -10.440797 3.6096398e-07 0
2.3079028 -10.446794 3.5576221e-07 0
2.4954028 -9.6357965 3.1211653e-07 0
2.6204028 -6.0367985 1.4933539e-07 0
2.5579028 -9.6357965 3.0938455e-07 0
2.7454028 -9.1357965 2.7933297e-07 0
2.8079028 -9.1257944 2.761638e-07 0
3.0579028 -5.5427952 1.086181e-07 0
3.1204028 -5.5347996 1.0553663e-07 0
3.0579028 -8.3707972 2.3223397e-07 0
3.3704028 -5.0517979 7.3496096e-08 0
3.3079028 -7.8357944 1.9792043e-07 0
3.4954028 -5.0427952 6.7638666e-08 0
3.6204028 -7.1057987 1.5235148e-07 0
3.6829028 -7.0947971 1.4913861e-07 0
3.9329028 4.2932024 -3.5957447e-07 0
3.9954028 4.4202013 -3.6785775e-07 0
3.8704028 -4.5267963 2.8691858e-08 0
4.0579028 4.4872026 -3.7351845e-07 0
3.9329028 -6.5107975 1.1268334e-07 0
4.1829028 4.5911989 -3.8352817e-07 0
4.2454028 4.7282 -3.9224867e-07 0
4.3079028 4.8372011 -3.997452e-07 0
4.1829028 -4.0517979 -5.7307972e-09 0
4.1829028 -5.8267994 7.1856974e-08 0
4.3704028 4.9231997 -4.0623627e-07 0
4.4954028 5.0172014 -4.1580915e-07 0
4.5579028 5.1032 -4.2230022e-07 0
4.6204028 3.7482045 -3.6580346e-07 0
4.4954028 -5.2187977 3.1620573e-08 0
4.6829028 3.8232014 -3.7181366e-07 0
4.7454028 3.9222004 -3.7887298e-07 0
4.6829028 -3.5117972 -5.1190682e-08 0
4.8079028 4.0262041 -3.861511e-07 0
4.9329028 4.1372042 -3.9646699e-07 0
4.9954028 4.2392015 -4.036574e-07 0
4.9329028 -3.1947958 -7.5975095e-08 0
5.0579028 4.3372011 -4.1067307e-07 0
5.1204028 4.4231997 -4.1716413e-07 0
5.0579028 -3.9707968 -4.7518938e-08 0
5.1829028 4.5172014 -4.2400507e-07 0
5.3079028 4.6252031 -4.3418987e-07 0
5.3704028 4.7332048 -4.4164273e-07 0
5.4329028 4.8322039 -4.4870208e-07 0
5.4954028 4.9312029 -4.5576144e-07 0
5.5579028 5.0462008 -4.6352011e-07 0
5.6829028 5.1542025 -4.7370492e-07 0
5.7454028 5.1562014 -4.7652429e-07 0
5.8079028 5.1702013 -4.7986816e-07 0
5.8704028 5.1722002 -4.8268754e-07 0
5.9329028 5.2082033 -4.8699326e-07 0
5.9329028 3.735204 -4.226064e-07 0
6.0579028 5.2412004 -4.9389951e-07 0
6.0579028 3.6582005 -4.2470438e-07 0
6.1204028 5.2532015 -4.9715607e-07 0
6.1204028 3.6512043 -4.2713054e-07 0
6.1829028 5.2711992 -5.0067473e-07 0
6.1829028 3.7812016 -4.3554485e-07 0
6.2454028 5.2822008 -5.0388758e-07 0
6.3079028 5.2932024 -5.0710042e-07 0
6.4329028 5.3072023 -5.131763e-07 0
6.4954028 5.3182039 -5.1638915e-07 0
6.5579028 5.3332033 -5.1977679e-07 0
6.6204028 5.3372011 -5.2268354e-07 0
6.6829028 5.3512011 -5.2602741e-07 0
6.8079028 5.365201 -5.3210329e-07 0
6.8704028 5.3782015 -5.354035e-07 0
6.9329028 5.3922014 -5.3874743e-07 0
6.9954028 5.3961992 -5.4165417e-07 0
7.0579028 5.4082003 -5.4491068e-07 0
7.1204028 5.4202013 -5.4816724e-07 0
7.2454028 5.4342012 -5.5424312e-07 0
7.3079028 5.4442034 -5.5741231e-07 0
7.3704028 5.452199 -5.6049373e-07 0
7.4329028 5.4651995 -5.6379395e-07 0
7.4954028 5.4762011 -5.6700685e-07 0
7.6204028 5.4852037 -5.7286428e-07 0
7.6829028 5.5061998 -5.7651403e-07 0
7.7454028 5.4992037 -5.7894016e-07 0
7.7454028 3.9602025 -5.116683e-07 0
7.8079028 5.5612001 -5.8438206e-07 0
7.8704028 5.6102037 -5.8925605e-07 0
7.9329028 5.6542025 -5.9391124e-07 0
8.0579023 5.6952028 -6.0116736e-07 0
8.1204023 5.7161989 -6.0481705e-07 0
8.1204023 3.6842015 -5.1599568e-07 0
8.1829023 5.7962008 -6.1104606e-07 0
8.1829023 3.7542012 -5.2178746e-07 0
8.3079023 3.7892048 -5.2878136e-07 0
8.3704023 3.8812001 -5.3553458e-07 0
8.4329023 3.8672001 -5.3765461e-07 0
8.4954023 3.5822041 -5.2792899e-07 0
8.6204023 5.7812014 -6.2951415e-07 0
8.6829023 3.5592015 -5.351194e-07 0
8.6829023 5.6562014 -6.2678214e-07 0
8.7454023 3.5901997 -5.3920633e-07 0
8.8079023 5.528203 -6.2665111e-07 0
8.8079023 3.6552022 -5.4477965e-07 0
8.8704023 3.6321995 -5.465061e-07 0
8.9954023 3.622205 -5.5153316e-07 0
8.9954023 4.9282045 -6.0862021e-07 0
9.1204023 5.0002031 -6.1723131e-07 0
9.2454023 5.1972017 -6.3130631e-07 0
9.3079023 5.3252001 -6.3963324e-07 0
9.3704023 5.4722033 -6.4879089e-07 0
9.4329023 5.5672045 -6.5567554e-07 0
9.4954023 5.7132006 -6.6478918e-07 0
9.6204023 3.5901997 -5.7745382e-07 0
9.7454023 3.6032002 -5.8348598e-07 0
9.8079023 3.6142018 -5.8669883e-07 0
9.8704023 3.6172001 -5.8956186e-07 0
9.9329023 3.6181996 -5.9233753e-07 0
9.9329023 6.1962023 -7.0502563e-07 0
9.9954023 3.6452 -5.9624972e-07 0
10.120402 3.6282017 -6.0097062e-07 0
10.182902 3.6252034 -6.0357149e-07 0
10.245402 3.6272023 -6.0639081e-07 0
10.307902 3.6232045 -6.0894808e-07 0
10.432902 3.6282017 -6.1463038e-07 0
10.495402 3.6292012 -6.1740604e-07 0
10.557902 3.6282017 -6.2009434e-07 0
10.620402 3.6282017 -6.2282629e-07 0
10.682902 3.6292012 -6.2560196e-07 0
10.807902 3.6302006 -6.3110957e-07 0
10.870402 3.6442006 -6.344535e-07 0
10.932902 3.6372044 -6.3687963e-07 0
10.995402 3.6432011 -6.3987375e-07 0
11.057902 3.6532032 -6.4304288e-07 0
11.182902 3.6592 -6.4876895e-07 0
11.245402 3.6702015 -6.5198185e-07 0
11.307902 3.6722004 -6.5480117e-07 0
11.370402 4.0872011 -6.7567333e-07 0
11.432902 3.6532032 -6.5943465e-07 0
11.557902 3.6422017 -6.6441766e-07 0
11.620402 3.6452 -6.6728074e-07 0
11.682902 3.6562016 -6.7049359e-07 0
11.745402 3.6542027 -6.7313817e-07 0
11.807902 3.6562016 -6.7595749e-07 0
11.932902 3.6562016 -6.8142145e-07 0
11.995402 3.6572011 -6.8419706e-07 0
12.057902 3.6601994 -6.8706009e-07 0
12.120402 3.6662037 -6.9005449e-07 0
12.182902 3.6731999 -6.9309226e-07 0
12.307902 3.6822026 -6.9894975e-07 0
12.370402 3.6842015 -7.0176907e-07 0
12.432902 3.683202 -7.0445731e-07 0
12.495402 3.6842015 -7.0723297e-07 0
12.557902 3.6812031 -7.098339e-07 0
12.682902 3.6952031 -7.1590978e-07 0
-5.3170962 -2.7327979 3.5187207e-07 0
-5.0045962 -3.440798 3.6915992e-07 0
-4.7545962 -3.8307974 3.7527951e-07 0
-4.6295962 -4.2877979 3.8979169e-07 0
-4.5670962 -4.3067951 3.8789014e-07 0
-4.5045962 -4.3297977 3.8616366e-07 0
-4.4420962 -4.3447971 3.8408734e-07 0
-4.3170962 -4.3617954 3.7936644e-07 0
-4.2545962 -4.4867954 3.8209839e-07 0
-4.1920962 -4.4947987 3.7971625e-07 0
-4.1295962 -4.4987965 3.7715904e-07 0
-4.0045962 -4.346796 3.6505097e-07 0
-3.9420967 -4.3017979 3.6035209e-07 0
-4.0045962 -5.7507954 4.2642171e-07 0
-3.8795967 -4.3337955 3.5901877e-07 0
-3.9420967 -5.9277973 4.3142677e-07 0
-3.7545967 -4.4237995 3.5748906e-07 0
-3.6920967 -4.497797 3.5799164e-07 0
-3.6295967 -4.5857944 3.5910617e-07 0
-3.5670967 -4.6767979 3.6035209e-07 0
-3.5045967 -4.7757969 3.6194751e-07 0
-3.4420967 -4.8687992 3.632808e-07 0
-3.3170967 -4.9527988 3.6148862e-07 0
-3.2545967 -5.0627995 3.6356494e-07 0
-3.1920967 -5.1457996 3.6446102e-07 0
-3.3170967 -7.3837986 4.6775099e-07 0
-3.1295967 -5.2838001 3.6776129e-07 0
-3.0670967 -5.3157978 3.6642797e-07 0
-3.1920967 -7.5917988 4.7137905e-07 0
-2.9420967 -5.4027958 3.6476683e-07 0
-2.8170967 -8.6177988 4.9983515e-07 0
-2.7545967 -8.624795 4.9740902e-07 0
-2.5670967 -8.9187937 5.0206421e-07 0
-2.3795967 -6.2527943 3.7733378e-07 0
-2.3170967 -6.2607975 3.7495167e-07 0
-2.1920967 -6.3557987 3.7364038e-07 0
-2.1295967 -6.3697987 3.7152037e-07 0
-2.2545967 -9.8697977 5.299741e-07 0
-2.0045967 -10.246797 5.3552543e-07 0
-1.6295967 -7.2047977 3.8616366e-07 0
-1.5045967 -7.209795 3.8091815e-07 0
-1.6920967 -11.089799 5.5871442e-07 0
-1.3795967 -7.410799 3.8424042e-07 0
-1.5670967 -11.361794 5.6513977e-07 0
-1.5045967 -11.368798 5.6271398e-07 0
-1.3170967 -10.985795 5.3777649e-07 0
-0.81709677 -8.1667948 3.9269835e-07 0
-0.75459677 -8.1637964 3.8983535e-07 0
-0.87959677 -10.482797 4.9666596e-07 0
-0.50459677 -8.3877954 3.8869882e-07 0
-0.62959677 -11.363793 5.2424775e-07 0
-0.56709677 -11.353799 5.2107885e-07 0
-0.19209681 -9.5567942 4.2613758e-07 0
-0.067096829 -9.0157938 3.9702576e-07 0
0.12040316 -11.356797 4.911584e-07 0
0.24540316 -8.9687967 3.8131162e-07 0
0.30790314 -9.5517969 4.0406343e-07 0
0.43290314 -9.5577936 3.9886163e-07 0
0.68290311 -8.4517984 3.3958921e-07 0
0.80790311 -8.4467936 3.3390651e-07 0
0.74540311 -10.125794 4.1002991e-07 0
0.80790311 -10.109796 4.0659862e-07 0
0.93290311 -8.0827951 3.1253168e-07 0
0.87040311 -11.358796 4.5846221e-07 0
0.93290311 -11.349793 4.553367e-07 0
1.1204031 -10.467797 4.0858757e-07 0
1.5579031 -7.4707966 2.584608e-07 0
1.4329031 -10.972795 4.170019e-07 0
1.5579031 -11.007798 4.1306802e-07 0
1.8079031 -7.0997944 2.3131591e-07 0
1.7454031 -11.361794 4.2034583e-07 0
1.9329031 -11.006799 3.9663257e-07 0
2.3079028 -6.4607944 1.8152865e-07 0
2.3704028 -6.4677982 1.7910281e-07 0
2.3079028 -10.330796 3.5069178e-07 0
2.5579028 -6.1057987 1.5508343e-07 0
2.4954028 -9.7047968 3.1513258e-07 0
2.8079028 -9.0477991 2.7275451e-07 0
2.9954028 -8.4447947 2.3820046e-07 0
3.1204028 -5.4607944 1.0230175e-07 0
3.3079028 -5.1397953 8.0074557e-08 0
3.3704028 -5.1407948 7.7386275e-08 0
3.3079028 -7.7497959 1.9416132e-07 0
3.4329028 -7.7347965 1.8804172e-07 0
3.5579028 -7.1907978 1.5879887e-07 0
3.8704028 -4.4827976 2.6768618e-08 0
3.9329028 -4.4687977 2.3424704e-08 0
3.9329028 -6.4397984 1.0957989e-07 0
3.9954028 -6.4667988 1.0802813e-07 0
4.1204028 -4.1617985 1.8094397e-09 0
4.1204028 -5.9687977 8.07959e-08 0
4.4954028 -5.1247959 2.7511618e-08 0
4.6829028 -3.4867957 -5.2283525e-08 0
4.7454028 -3.4687979 -5.5802204e-08 0
4.8079028 -3.2297995 -6.8981109e-08 0
5.0579028 -3.8127997 -5.44252e-08 0
5.1829028 -3.4237998 -7.689286e-08 0
5.2454028 -3.3437979 -8.3121805e-08 0
5.3079028 -2.7357962 -1.1243037e-07 0
5.5579028 0.13020092 -2.4863493e-07 0
5.5579028 -1.9967978 -1.5566084e-07 0
5.6204028 1.2711997 -3.0124153e-07 0
5.7454028 1.2672019 -3.0653072e-07 0
5.8079028 1.2672019 -3.0926267e-07 0
5.8704028 1.2752051 -3.1234447e-07 0
5.9329028 1.2812018 -3.1533855e-07 0
5.9329028 -1.815798 -1.7996439e-07 0
5.9954028 2.1812031 -3.5741081e-07 0
6.1204028 2.1601994 -3.6195667e-07 0
6.1829028 2.058202 -3.6023016e-07 0
6.2454028 2.0142033 -3.6103887e-07 0
6.3079028 1.9762015 -3.6210974e-07 0
6.4329028 1.8922019 -3.639019e-07 0
6.4954028 1.7612052 -3.6090782e-07 0
6.4954028 -0.44079819 -2.646552e-07 0
6.5579028 1.3532004 -3.4580532e-07 0
6.6204028 1.3112006 -3.4670143e-07 0
6.7454028 1.2812018 -3.5085404e-07 0
6.8079028 1.2752051 -3.5332391e-07 0
6.8704028 1.265203 -3.5561865e-07 0
6.9329028 1.2672019 -3.5843797e-07 0
6.9954028 1.1382041 -3.5553128e-07 0
7.1204028 1.114202 -3.5994603e-07 0
7.1829028 1.1702018 -3.6512583e-07 0
7.2454028 1.3122001 -3.7406471e-07 0
7.3079028 1.4902015 -3.8457739e-07 0
7.3704028 3.0252049 -4.5440646e-07 0
7.4329028 5.2472048 -5.5426511e-07 0
7.4954028 2.9231999 -4.5541162e-07 0
7.4954028 1.9082007 -4.110446e-07 0
7.4954028 5.3322039 -5.6071252e-07 0
7.5579028 2.8472035 -4.5482165e-07 0
7.6204028 2.6952031 -4.5090945e-07 0
7.6829028 2.5872014 -4.4892056e-07 0
7.7454028 5.4622011 -5.7732274e-07 0
7.7454028 2.5872014 -4.5165251e-07 0
7.8079028 5.4482012 -5.7944271e-07 0
7.8704028 5.4342012 -5.8156274e-07 0
7.9329028 5.3821993 -5.8202158e-07 0
8.0579023 5.3642015 -5.8669883e-07 0
8.1204023 5.3482027 -5.887315e-07 0
8.1829023 5.3102007 -5.8980231e-07 0
8.2454023 5.2752047 -5.9100455e-07 0
8.3079023 3.8072026 -5.2956807e-07 0
8.3079023 5.2701998 -5.9351771e-07 0
8.3704023 3.459203 -5.1708855e-07 0
8.4329023 5.2482042 -5.9802022e-07 0
8.4954023 5.1982012 -5.9856643e-07 0
8.5579023 5.1672029 -5.9994346e-07 0
8.6204023 5.1572008 -6.0223817e-07 0
8.6829023 5.1232042 -6.0348412e-07 0
8.8079023 5.0862017 -6.0733061e-07 0
8.8704023 5.0832033 -6.0993148e-07 0
8.9329023 5.0452013 -6.1100235e-07 0
8.9954023 5.0071993 -6.1207322e-07 0
9.0579023 5.0042009 -6.1467409e-07 0
9.1829023 4.9772005 -6.1895776e-07 0
9.2454023 4.9342012 -6.1981018e-07 0
9.3079023 4.8922014 -6.2070626e-07 0
9.3704023 4.8612032 -6.2208323e-07 0
9.4329023 4.8592043 -6.2472787e-07 0
9.5579023 4.8232012 -6.2861801e-07 0
9.6204023 4.7832003 -6.2960152e-07 0
9.6829023 4.7812014 -6.322461e-07 0
9.7454023 4.7552004 -6.3384152e-07 0
9.8079023 4.7291994 -6.3543695e-07 0
9.8704023 6.0602007 -6.9634882e-07 0
9.9329023 6.0592012 -6.9903712e-07 0
10.057902 4.6162004 -6.4142546e-07 0
10.120402 4.5911989 -6.430646e-07 0
10.182902 4.577199 -6.4518457e-07 0
10.307902 4.5292025 -6.485505e-07 0
10.370402 4.5132036 -6.505831e-07 0
10.432902 4.4931993 -6.5244069e-07 0
10.495402 4.4661989 -6.539924e-07 0
10.620402 4.4202013 -6.5744575e-07 0
10.682902 4.4062014 -6.5956573e-07 0
10.745402 4.3541994 -6.6002457e-07 0
10.807902 4.3372011 -6.6201358e-07 0
10.870402 4.2942019 -6.6286594e-07 0
10.995402 4.2812014 -6.6776158e-07 0
11.057902 4.2672014 -6.6988162e-07 0
11.120402 4.2242022 -6.7073398e-07 0
11.182902 4.1642046 -6.7084335e-07 0
11.307902 4.1382036 -6.7517078e-07 0
11.370402 4.1392031 -6.7794645e-07 0
-4.7545962 -3.8437979 3.7584778e-07 0
-4.4420962 -4.6327991 3.9667628e-07 0
-4.3170962 -5.0437946 4.0917757e-07 0
-4.2545962 -5.2107944 4.137454e-07 0
-4.1295962 -5.3077946 4.125215e-07 0
-4.0670962 -5.4687977 4.1682719e-07 0
-4.0045962 -5.5397968 4.1719869e-07 0
-3.8795967 -4.6737995 3.7388082e-07 0
-3.8170967 -4.6917973 3.7193558e-07 0
-3.6920967 -4.7177982 3.6760821e-07 0
-3.8170967 -6.1877995 4.3732791e-07 0
-3.6295967 -4.7327976 3.6553189e-07 0
-3.7545967 -6.3717976 4.4263874e-07 0
-3.5670967 -4.7667942 3.6428594e-07 0
-3.6920967 -6.5377979 4.471629e-07 0
-3.5045967 -4.8277988 3.6422057e-07 0
-3.6295967 -6.7207966 4.5243007e-07 0
-3.3795967 -4.860796 3.6019901e-07 0
-3.5045967 -6.9127979 4.5535879e-07 0
-3.3170967 -4.9747944 3.6245007e-07 0
-3.2545967 -5.049799 3.6299667e-07 0
-3.1920967 -5.1317997 3.6384907e-07 0
-3.3170967 -7.5107975 4.7330229e-07 0
-3.1295967 -5.2187977 3.6491991e-07 0
-3.0045967 -5.3157978 3.6369602e-07 0
-2.9420967 -5.4127979 3.6520407e-07 0
-2.8795967 -5.4967976 3.6614381e-07 0
-2.8170967 -5.6077976 3.6826384e-07 0
-2.7545967 -5.6907978 3.6915992e-07 0
-2.6295967 -5.7987995 3.6841692e-07 0
-2.5670967 -5.8707981 3.688321e-07 0
-2.7545967 -8.6547937 4.9872028e-07 0
-2.5045967 -5.9787998 3.7082106e-07 0
-2.4420967 -6.0787983 3.7246016e-07 0
-2.5670967 -8.8727961 5.000536e-07 0
-2.3795967 -6.1817951 3.7423035e-07 0
-2.2545967 -6.2877979 3.7339996e-07 0
-2.1920967 -6.3157978 3.7189187e-07 0
-2.2545967 -9.9087992 5.3167889e-07 0
-2.1295967 -9.9267969 5.270017e-07 0
-2.0045967 -10.208795 5.3386429e-07 0
-1.5045967 -7.2287998 3.8174889e-07 0
-1.6295967 -11.190797 5.6039721e-07 0
-1.3795967 -7.3597965 3.8201102e-07 0
-1.5045967 -11.375794 5.630198e-07 0
-1.3170967 -11.001794 5.3847583e-07 0
-0.75459677 -8.1787958 3.9049098e-07 0
-0.75459677 -10.453797 4.8993445e-07 0
-0.50459677 -8.3627939 3.8760598e-07 0
-0.56709677 -10.124795 4.6735744e-07 0
-0.56709677 -11.356797 5.2120993e-07 0
-0.50459677 -11.335793 5.175599e-07 0
-0.3795968 -11.354798 5.129267e-07 0
-0.067096829 -9.0797968 3.9982342e-07 0
0.12040316 -11.360795 4.9133314e-07 0
0.30790314 -9.0027933 3.8006573e-07 0
0.18290316 -11.424798 4.9139879e-07 0
0.37040314 -9.5067987 3.9936455e-07 0
0.43290314 -9.5287943 3.9759402e-07 0
0.80790311 -8.4237986 3.3290135e-07 0
0.80790311 -10.140794 4.0795359e-07 0
0.99540311 -8.1097956 3.1097997e-07 0
0.87040311 -11.357797 4.5841855e-07 0
1.1204031 -10.437799 4.0727627e-07 0
1.5579031 -7.4267979 2.5653753e-07 0
1.5579031 -11.010797 4.131991e-07 0
1.7454031 -7.1357975 2.3562163e-07 0
1.8079031 -7.1267948 2.3249612e-07 0
1.7454031 -11.368798 4.2065199e-07 0
1.9329031 -11.037797 3.9798755e-07 0
2.3704028 -6.4427967 1.7800997e-07 0
2.5579028 -6.1597996 1.5744388e-07 0
2.4954028 -9.7717981 3.1806132e-07 0
2.8079028 -9.0147943 2.7131182e-07 0
2.9329028 -9.0247965 2.6628513e-07 0
2.9954028 -8.4967966 2.4047353e-07 0
3.1204028 -5.4547977 1.0203962e-07 0
3.2454028 -5.4547977 9.657569e-08 0
3.3079028 -5.1627979 8.1080032e-08 0
3.4329028 -7.6907978 1.8611848e-07 0
3.4954028 -7.2527943 1.6424079e-07 0
3.6204028 -7.2467976 1.5851472e-07 0
3.9329028 -4.4137974 2.1020568e-08 0
4.0579028 -4.424799 1.6037518e-08 0
3.9954028 -6.3967991 1.0496836e-07 0
4.1204028 -4.1887989 2.9896654e-09 0
4.1204028 -5.9847965 8.1495216e-08 0
4.4954028 -5.0827961 2.5675746e-08 0
4.5579028 -5.0797977 2.2812742e-08 0
4.6829028 -4.7347965 2.2683224e-09 0
4.7454028 -3.3987982 -5.8861986e-08 0
4.8704028 -3.2447989 -7.1057428e-08 0
5.0579028 -3.7737982 -5.613002e-08 0
5.1829028 -3.6247962 -6.8107028e-08 0
5.2454028 -3.4657996 -7.778894e-08 0
5.3079028 -2.7097952 -1.1356691e-07 0
5.5579028 -1.065798 -1.9635614e-07 0
5.6204028 0.073201723 -2.4887538e-07 0
5.7454028 0.06120069 -2.5381473e-07 0
5.6829028 -2.3827994 -1.4425211e-07 0
5.8079028 0.059201788 -2.5645932e-07 0
5.8704028 0.063199587 -2.59366e-07 0
5.9329028 0.070203371 -2.6240414e-07 0
5.9329028 -1.7467978 -1.829805e-07 0
6.0579028 0.88219976 -3.0336153e-07 0
6.0579028 -1.6597998 -1.922472e-07 0
6.1204028 0.77720404 -3.01504e-07 0
6.1204028 -1.4648001 -2.0350288e-07 0
6.1829028 0.67220068 -2.996461e-07 0
6.1829028 -1.2327979 -2.1637598e-07 0
6.2454028 0.57320166 -2.9805068e-07 0
6.3079028 0.26820138 -2.8745066e-07 0
6.4329028 0.12920147 -2.8683868e-07 0
6.4954028 0.085202761 -2.8764742e-07 0
6.5579028 0.059201788 -2.8924285e-07 0
6.6204028 0.059201788 -2.9197483e-07 0
6.7454028 1.6422019 -3.6663386e-07 0
6.7454028 0.059201788 -2.9743873e-07 0
6.8079028 1.5592017 -3.6573778e-07 0
6.8704028 1.5312018 -3.6724583e-07 0
6.9329028 1.5022025 -3.6871018e-07 0
6.9954028 1.416204 -3.6768304e-07 0
7.1204028 1.3232017 -3.6908168e-07 0
7.1829028 1.3062034 -3.7107066e-07 0
7.2454028 1.3092017 -3.7393366e-07 0
8.3079023 3.3632023 -5.1016025e-07 0
9.9329023 6.1082048 -7.0117915e-07 0
-4.5670962 -4.2777958 3.8662253e-07 0
-4.2545962 -5.0377979 4.0618346e-07 0
-4.1295962 -5.4557972 4.1899091e-07 0
-4.0670962 -5.584795 4.218976e-07 0
-4.0045962 -5.5917988 4.1947175e-07 0
-3.9420967 -5.6127949 4.1765759e-07 0
-3.8170967 -5.622797 4.1263087e-07 0
-3.7545967 -5.6417942 4.1072929e-07 0
-3.6920967 -5.6407948 4.0795365e-07 0
-3.5670967 -5.6527958 4.0301433e-07 0
-3.5045967 -5.6677952 4.0093801e-07 0
-3.4420967 -5.6767979 3.9859952e-07 0
-3.3795967 -5.6827946 3.9612974e-07 0
-3.2545967 -5.6757984 3.9035996e-07 0
-3.1920967 -5.2607975 3.6948774e-07 0
-3.3170967 -7.4407978 4.7024253e-07 0
-3.0670967 -5.2787952 3.6481055e-07 0
-3.2545967 -7.5257969 4.7122597e-07 0
-3.0045967 -5.3577976 3.6553189e-07 0
-2.9420967 -5.4427967 3.6651534e-07 0
-2.8795967 -5.5257969 3.6741142e-07 0
-2.8170967 -5.6357975 3.6948774e-07 0
-2.6920967 -5.7177982 3.6760818e-07 0
-2.6295967 -5.8177967 3.6924732e-07 0
-2.5670967 -5.9147968 3.7075537e-07 0
-2.5045967 -6.0027943 3.7186987e-07 0
-2.4420967 -6.1077976 3.7372777e-07 0
-2.3170967 -6.1868 3.7171714e-07 0
-2.2545967 -6.3027973 3.7405559e-07 0
-2.1920967 -6.3297977 3.7250385e-07 0
-2.1295967 -6.5107975 3.7768362e-07 0
-2.1920967 -9.9027948 5.286845e-07 0
-2.0670967 -10.190797 5.3580953e-07 0
-2.0045967 -10.172799 5.3229087e-07 0
-1.5045967 -7.2457981 3.8249189e-07 0
-1.6920967 -11.152795 5.6146808e-07 0
-1.3170967 -7.3357944 3.7822988e-07 0
-1.5670967 -11.342797 5.6430935e-07 0
-1.4420967 -11.367799 5.5993831e-07 0
-1.3795967 -11.020799 5.4203849e-07 0
-0.75459677 -8.1907969 3.9101556e-07 0
-0.81709677 -10.440797 4.9209814e-07 0
-0.56709677 -8.360795 3.9025053e-07 0
-0.56709677 -11.375794 5.2204035e-07 0
-0.4420968 -11.357797 5.1578974e-07 0
-0.3795968 -11.363793 5.1331989e-07 0
-0.12959681 -9.5027933 4.2104514e-07 0
-0.0045968336 -9.0707941 3.9669794e-07 0
0.24540316 -9.0107965 3.8314749e-07 0
0.12040316 -11.357797 4.9120212e-07 0
0.37040314 -9.4707956 3.9779081e-07 0
0.74540311 -8.4407969 3.3637633e-07 0
0.80790311 -8.4177942 3.326389e-07 0
0.68290311 -11.362794 4.6683283e-07 0
0.87040311 -10.138795 4.0513427e-07 0
0.99540311 -8.1357965 3.121165e-07 0
1.0579031 -10.454797 4.1075128e-07 0
1.5579031 -7.4147968 2.5601295e-07 0
1.4954031 -11.035798 4.1702393e-07 0
1.5579031 -11.020799 4.1363629e-07 0
1.7454031 -7.1537952 2.3640834e-07 0
1.7454031 -11.363793 4.204332e-07 0
1.8079031 -11.369798 4.1796366e-07 0
1.8704031 -11.051797 4.0133145e-07 0
2.3704028 -6.4437962 1.7805365e-07 0
2.2454028 -10.367799 3.5504121e-07 0
2.4329028 -6.4377995 1.750596e-07 0
2.4954028 -6.1647968 1.6039429e-07 0
2.4329028 -9.7917948 3.2166739e-07 0
2.8704028 -8.9807978 2.6709387e-07 0
2.9954028 -8.5107965 2.410855e-07 0
3.1829028 -5.4097996 9.7340731e-08 0
3.2454028 -5.3997974 9.4171568e-08 0
3.3079028 -5.1907978 8.2303941e-08 0
3.3704028 -7.6797962 1.8836955e-07 0
3.4329028 -7.6757984 1.8546285e-07 0
3.5579028 -7.2727985 1.6238324e-07 0
3.9954028 -4.4047947 1.7895076e-08 0
3.9329028 -6.4267979 1.0901162e-07 0
4.0579028 -4.2047977 6.4209615e-09 0
4.0579028 -6.3197956 9.8870458e-08 0
4.1204028 -6.0077991 8.2500691e-08 0
4.5579028 -5.0547962 2.1719885e-08 0
4.6204028 -4.7427998 5.3501168e-09 0
4.8079028 -3.3697989 -6.2861531e-08 0
4.8704028 -3.2587988 -7.0445466e-08 0
5.1204028 -3.7467978 -6.0042211e-08 0
5.1829028 -3.4857962 -7.4182907e-08 0
5.2454028 -2.7187979 -1.1044143e-07 0
5.3704028 -2.7067969 -1.1642994e-07 0
5.5579028 -1.0817969 -1.9565681e-07 0
5.6829028 0.0052009355 -2.4863493e-07 0
5.7454028 -0.085794844 -2.4738935e-07 0
5.7454028 -2.2477973 -1.5288524e-07 0
5.8079028 -0.27179947 -2.4199079e-07 0
5.8704028 -0.45279923 -2.3681099e-07 0
5.9954028 -1.6657965 -1.8925311e-07 0
6.0579028 -1.4747946 -2.0033403e-07 0
6.1204028 0.68220282 -2.9735136e-07 0
6.1204028 -1.329798 -2.0940402e-07 0
6.1829028 0.65920019 -2.9907784e-07 0
6.1829028 -1.1367972 -2.205723e-07 0
6.3079028 0.53420019 -2.9907784e-07 0
6.3079028 -0.96879804 -2.3337971e-07 0
6.3704028 0.44620278 -2.9796331e-07 0
6.4329028 0.34820321 -2.9641157e-07 0
6.4954028 0.23820263 -2.9433528e-07 0
6.6204028 0.154203 -2.9612747e-07 0
6.6829028 0.086202212 -2.9588699e-07 0
6.7454028 0.22420269 -3.0465114e-07 0
6.8079028 0.37820199 -3.1411466e-07 0
6.9329028 0.54520178 -3.2687834e-07 0
7.1204028 1.2972007 -3.6794515e-07 0
7.1829028 1.2752051 -3.6971568e-07 0
9.9329023 6.0892 -7.0034838e-07 0
9.9954023 6.0962038 -7.0338649e-07 0
-3.7545967 -6.2187977 4.3595094e-07 0
-3.4420967 -6.8487949 4.4982914e-07 0
-3.3795967 -6.8577976 4.4749072e-07 0
-3.3170967 -6.8437977 4.4414682e-07 0
-3.1920967 -6.8437977 4.3868289e-07 0
-3.1295967 -6.8397999 4.3577617e-07 0
-3.0670967 -6.8317966 4.3269438e-07 0
-3.0045967 -6.8297977 4.2987503e-07 0
-2.8795967 -6.8217945 4.2406128e-07 0
-2.8170967 -6.8197956 4.2124196e-07 0
-2.7545967 -6.8157978 4.1833522e-07 0
-2.6295967 -6.8157978 4.1287132e-07 0
-2.5670967 -6.8157978 4.1013936e-07 0
-2.5045967 -6.8157978 4.0740738e-07 0
-2.6295967 -8.8857965 5.0335382e-07 0
-2.3795967 -6.8187962 4.0207453e-07 0
-2.3170967 -6.8197956 3.9938627e-07 0
-2.2545967 -6.8297977 3.970915e-07 0
-2.1920967 -6.8307972 3.9440323e-07 0
-2.0670967 -6.8167973 3.8832735e-07 0
-2.0045967 -6.8057957 3.851145e-07 0
-1.9420967 -6.799799 3.8212042e-07 0
-1.8795967 -6.7987995 3.7934473e-07 0
-1.7545967 -6.8837986 3.7759625e-07 0
-1.6920967 -6.9827976 3.791917e-07 0
-1.6295967 -7.0627995 3.799567e-07 0
-1.5670967 -7.1527958 3.8115863e-07 0
-1.5045967 -7.2467976 3.8253557e-07 0
-1.3795967 -7.334795 3.8091818e-07 0
-1.3170967 -7.4507999 3.8325695e-07 0
-1.2545967 -7.5338001 3.8415303e-07 0
-1.1920967 -7.6247959 3.8539861e-07 0
-1.3170967 -11.048799 5.4053049e-07 0
-1.1295967 -7.7047977 3.8616363e-07 0
