0.65945493 123640170.87461689 93.59700000
0.65975712 123640170.93661615 93.61100000
0.66013729 123640171.01461522 93.62400000
0.66048335 123640171.08561438 93.65600000
0.66082452 123640171.15561354 93.68100000
0.66120470 123640171.23361263 93.72300000
0.63054624 123640171.30376288 93.73700000
0.63089230 123640171.37476204 93.75000000
0.63123348 123640171.44476120 93.80400000
0.63157466 123640171.51476038 93.81700000
0.63192071 123640171.58575954 93.83400000
0.63226189 123640171.65575871 93.87000000
0.63264206 123640171.73375778 93.86300000
0.63298324 123640171.80375694 93.90100000
0.60232966 123640171.87490720 93.91700000
0.60267084 123640171.94490637 93.92000000
0.60305101 123640172.02290544 94.03500000
0.63348039 123640171.90575573 92.65600000
0.60339706 123640172.09390460 94.04900000
0.60369925 123640172.15590386 94.02700000
0.60407942 123640172.23390293 94.06800000
0.57245997 123640172.31205797 94.20600000
0.60464968 123640172.35090154 93.77700000
0.60491775 123640172.40590088 93.60800000
0.60522481 123640172.46890014 93.52400000
0.57352738 123640172.53105538 93.42800000
0.57383444 123640172.59405462 93.34600000
0.57413663 123640172.65605389 93.27300000
0.57444369 123640172.71905313 93.17900000
0.57474588 123640172.78105240 93.09500000
0.57505294 123640172.84405166 92.98700000
0.57535513 123640172.90605092 92.90200000
0.57566219 123640172.96905017 92.82800000
0.54614425 123640173.27319765 94.99700000
0.57627144 123640173.09404868 92.62800000
0.51549067 123640173.34434789 94.96600000
0.57661262 123640173.16404785 92.55200000
0.51579286 123640173.40634717 94.92000000
0.57691480 123640173.22604711 92.48200000
0.51609992 123640173.46934642 94.87400000
0.57722186 123640173.28904636 92.38600000
0.51644110 123640173.53934559 94.82700000
0.54675350 123640173.39819616 92.90200000
0.51674329 123640173.60134485 94.77400000
0.51705035 123640173.66434410 94.74000000
0.51727942 123640173.71134354 94.34200000
0.51769859 123640173.79734252 94.61300000
0.54801099 123640173.65619311 92.70800000
0.51803977 123640173.86734168 94.59800000
0.51834195 123640173.92934096 94.58300000
0.51868801 123640174.00034010 94.56500000
0.51811775 123640173.88334149 92.93800000
0.48802956 123640174.07049038 94.54200000
0.51849792 123640173.96134058 92.99400000
0.48833662 123640174.13348962 94.52400000
0.51887809 123640174.03933965 93.05800000
0.48867780 123640174.20348880 94.49800000
0.48897998 123640174.26548806 94.47200000
0.48932604 123640174.33648720 94.45500000
0.48966722 123640174.40648638 94.43800000
0.51997962 123640174.26533696 92.31900000
0.48966722 123640174.40648638 93.38800000
0.49000840 123640174.47648555 93.45800000
0.49038857 123640174.55448462 93.52200000
0.49073462 123640174.62548378 93.58300000
0.49111479 123640174.70348285 93.65500000
0.49145597 123640174.77348202 93.72000000
0.45983652 123640174.85163707 93.79400000
0.49138286 123640174.75848220 92.30500000
0.46018258 123640174.92263621 93.86500000
0.49168505 123640174.82048146 92.31700000
0.46052376 123640174.99263538 93.95800000
0.49206522 123640174.89848053 92.30400000
0.55311406 123640174.70318067 89.17900000
0.46098191 123640175.08663426 94.28900000
0.49237228 123640174.96147978 92.30100000
0.46128410 123640175.14863354 94.27300000
0.46166427 123640175.22663261 94.26500000
0.43097170 123640175.28978296 94.25000000
0.49340069 123640175.17247728 92.30900000
0.46174225 123640175.24263242 92.31900000
0.46212242 123640175.32063149 92.32200000
0.43196112 123640175.49278054 94.20900000
0.46242949 123640175.38363074 92.30500000
0.43230230 123640175.56277971 94.21200000
0.46277066 123640175.45362991 92.29400000
0.52459041 123640175.21132572 87.88800000
0.46292176 123640175.48462954 91.63800000
0.52489260 123640175.27332498 87.90200000
0.46334092 123640175.57062852 91.79900000
0.46379908 123640175.66462740 92.29100000
0.52550185 123640175.39832351 87.40600000
0.46414026 123640175.73462658 92.27700000
0.52580891 123640175.46132275 87.33600000
0.43416904 123640175.94577517 92.30400000
0.43451022 123640176.01577432 92.31500000
0.49671013 123640175.85146922 89.21100000
0.43519745 123640176.15677266 92.31900000
0.43553863 123640176.22677183 92.32000000
0.49743636 123640176.00046745 87.94100000
0.49769955 123640176.05446680 87.45800000
0.40568438 123640176.46192013 94.19800000
0.52869919 123640176.05431572 85.97200000
0.37498694 123640176.52407049 94.20500000
0.49857687 123640176.23446466 86.67500000
0.52965449 123640176.25031339 85.60700000
0.37635653 123640176.80506715 94.22500000
0.53030273 123640176.38331181 85.21900000
0.37670258 123640176.87606630 94.21800000
0.50094076 123640176.71945891 84.53500000
0.37796007 123640177.13406324 92.31600000
0.50139404 123640176.81245780 85.02300000
0.37830125 123640177.20406240 92.31800000
0.50223236 123640176.98445576 83.75300000
0.37932967 123640177.41505989 92.33400000
0.50280262 123640177.10145436 84.72200000
0.37967084 123640177.48505907 92.32800000
0.31773900 123640177.70436352 94.21900000
0.31804118 123640177.76636279 94.22000000
0.50390902 123640177.32845168 83.06900000
0.47251865 123640177.45360616 84.23600000
0.47285983 123640177.52360532 84.23300000
0.50523962 123640177.60144843 82.26200000
0.31971784 123640178.11035870 94.22200000
0.50558567 123640177.67244759 82.25100000
0.32005902 123640178.18035787 94.22000000
0.47495564 123640177.95360021 83.76300000
0.50695526 123640177.95344424 81.68000000
0.32108743 123640178.39135537 92.32000000
0.32143348 123640178.46235453 92.31400000
0.50828586 123640178.22644101 80.79100000
0.47666641 123640178.30459605 80.78700000
0.29180344 123640178.74350229 92.33300000
0.44639301 123640178.45374537 83.13400000
0.29214462 123640178.81350145 92.33100000
0.26175424 123640178.93865106 94.20800000
0.29249067 123640178.88450061 92.29300000
0.26210029 123640179.00965022 94.21100000
0.47807987 123640178.59459260 80.14800000
0.26244147 123640179.07964939 94.20700000
0.85040934 123640178.04577136 56.01300000
0.44852294 123640178.89074019 82.72500000
0.47941047 123640178.86758935 79.29000000
0.47979064 123640178.94558844 79.30300000
0.26411812 123640179.42364530 94.20800000
0.23242069 123640179.48580053 94.22200000
0.23280086 123640179.56379960 94.21800000
0.48085805 123640179.16458583 78.83300000
0.26487847 123640179.57964344 92.30800000
0.48123822 123640179.24258490 78.83100000
0.66767631 123640178.92167240 66.00800000
0.26521965 123640179.64964262 92.31900000
0.41999930 123640179.39888524 82.00200000
0.66797849 123640178.98367167 65.08400000
0.42037947 123640179.47688432 82.02700000
0.60627572 123640179.24997556 69.26300000
0.48264680 123640179.53158148 77.84700000
0.63857753 123640179.31181885 68.23600000
0.48298798 123640179.60158063 77.84200000
0.54583614 123640179.57027395 72.65200000
0.20446730 123640180.11094420 94.20800000
0.42217310 123640179.84487994 81.64200000
0.20477437 123640180.17394345 94.20800000
0.23561803 123640180.14179274 92.33300000
0.45309474 123640179.82872903 77.38300000
0.23596408 123640180.21279189 92.32200000
0.48432345 123640179.87557739 75.95300000
0.48462564 123640179.93757665 74.88800000
0.45416215 123640180.04772644 76.87200000
0.20614396 123640180.45494011 94.23300000
0.23695350 123640180.41578948 92.31800000
0.20648514 123640180.52493928 94.23500000
0.23729468 123640180.48578864 92.33100000
0.17583156 123640180.59608953 94.23300000
0.20667522 123640180.56393883 92.33000000
0.17613375 123640180.65808880 94.22400000
0.20698228 123640180.62693807 92.31400000
0.20732346 123640180.69693723 92.33100000
0.42514136 123640180.45387271 77.33500000
0.42582859 123640180.59487103 76.85000000
0.17750334 123640180.93908545 94.24000000
0.20835187 123640180.90793473 92.34500000
0.42624288 123640180.67987002 76.87100000
0.17781040 123640181.00208472 94.24500000
0.20869305 123640180.97793390 92.31900000
0.14852154 123640181.35323164 94.48900000
0.14882860 123640181.41623089 94.41000000
0.14916978 123640181.48623006 94.21900000
0.36644584 123640181.33716927 79.86100000
0.14951096 123640181.55622922 94.28600000
0.14985701 123640181.62722838 94.48600000
0.18073967 123640181.60307758 92.33300000
0.18108572 123640181.67407672 92.35500000
0.33689378 123640181.63431685 79.59700000
0.11884681 123640181.83038193 94.29100000
0.15076845 123640181.81422615 92.33100000
0.11918799 123640181.90038110 94.27400000
0.11953404 123640181.97138026 94.39800000
0.15145568 123640181.95522448 92.69200000
0.11983623 123640182.03337952 94.28000000
0.12017741 123640182.10337870 94.52200000
0.15214291 123640182.09622280 92.32200000
0.33875565 123640182.01631232 79.17500000
0.33914069 123640182.09531137 79.20800000
0.15278628 123640182.22822124 92.33400000
0.12116683 123640182.30637628 92.33400000
0.09051325 123640182.37752654 94.22600000
0.09085443 123640182.44752569 94.23400000
0.09119561 123640182.51752487 94.22200000
0.31000292 123640182.47745793 78.66300000
0.31076814 123640182.63445607 79.87500000
0.31110932 123640182.70445523 78.44100000
0.09253108 123640182.79152161 94.24600000
0.09287226 123640182.86152078 94.23600000
0.09390068 123640183.07251827 92.32100000
0.09424186 123640183.14251745 92.32200000
0.09458791 123640183.21351661 92.32200000
0.06389046 123640183.27566695 94.24900000
0.09492909 123640183.28351577 92.30900000
0.06423652 123640183.34666611 94.25000000
0.09527027 123640183.35351494 92.36300000
0.31453574 123640183.40744688 76.87700000
0.06453871 123640183.40866537 94.25000000
0.09561632 123640183.42451410 92.32700000
0.06487988 123640183.47866455 94.25300000
0.06491888 123640183.48666446 92.41000000
0.06529905 123640183.56466353 92.33100000
0.06560611 123640183.62766278 92.34300000
0.28582201 123640183.87659240 76.85900000
0.28620218 123640183.95459148 76.86000000
0.03589808 123640183.89281073 94.23300000
0.28662134 123640184.04059047 75.79100000
0.03624414 123640183.96380988 94.23700000
0.28742067 123640184.20458850 75.08400000
0.19349977 123640184.22104648 81.68200000
0.25568912 123640184.25974382 77.46000000
0.19387995 123640184.29904555 81.68000000
0.25606930 123640184.33774289 77.80300000
0.31933174 123640184.39143519 72.50700000
0.00557512 123640184.23696260 94.21800000
0.31975091 123640184.47743417 71.70400000
0.00591630 123640184.30696177 94.21900000
0.19456230 123640184.43904388 81.97200000
0.32013108 123640184.55543324 71.75800000
0.35170584 123640184.67328075 69.10800000
0.03872013 123640184.47180384 92.33700000
0.35208601 123640184.75127983 69.09700000
0.03902231 123640184.53380311 92.34200000
0.35254417 123640184.84527871 68.41300000
0.38411405 123640184.96212623 65.84600000
0.19661913 123640184.86103888 78.91400000
0.38449423 123640185.04012530 65.83600000
0.19699930 123640184.93903795 79.22600000
0.38498650 123640185.14112410 65.23800000
0.00839228 123640184.81495574 92.31900000
0.19737947 123640185.01703702 79.16600000
0.00873834 123640184.88595490 92.32300000
0.54423154 123640185.60135341 51.90200000
0.13517955 123640185.18134212 82.78900000
0.44996947 123640185.54781221 60.58300000
0.13556460 123640185.26034120 82.79100000
-0.02104280 123640185.13610302 94.23600000
-0.02074061 123640185.19810228 94.24000000
0.13624696 123640185.40033953 83.03700000
0.16889482 123640185.53318198 80.37600000
0.13723638 123640185.60333712 80.65500000
0.48366929 123640186.10165453 54.55500000
-0.05071183 123640185.40925087 94.22500000
-0.05037065 123640185.47925004 94.22200000
0.51634557 123640186.44549935 51.03400000
-0.01784546 123640185.79209523 92.33300000
-0.04850391 123640185.86224550 92.33000000
0.10867374 123640186.10348228 81.80500000
0.07779109 123640186.12763308 83.86100000
0.10905391 123640186.18148135 81.82800000
-0.04781668 123640186.00324382 92.31400000
0.07817126 123640186.20563215 83.87100000
-0.04747550 123640186.07324299 92.31600000
-0.04713432 123640186.14324215 92.30800000
0.04785886 123640186.34678158 84.10600000
0.04979871 123640186.74477684 83.26600000
-0.07634032 123640186.51138888 94.23600000
0.05013989 123640186.81477602 83.35800000
-0.10803775 123640186.57354411 94.23300000
-0.10769658 123640186.64354327 94.22300000
-0.10735052 123640186.71454243 94.22600000
0.01901758 123640186.99492985 84.83300000
0.01935876 123640187.06492901 84.94200000
-0.10537168 123640187.12053761 92.33100000
-0.10503050 123640187.19053678 92.32200000
-0.00981312 123640187.44007565 84.81900000
-0.10468445 123640187.26153594 92.32200000
-0.00946707 123640187.51107481 84.96000000
-0.10434327 123640187.33153510 92.31900000
-0.03951627 123640187.70622359 85.61200000
-0.03917509 123640187.77622277 85.69200000
-0.03905812 123640187.80022247 87.12500000
-0.03867794 123640187.87822154 87.01200000
-0.06925841 123640187.96437162 88.43300000
-0.16398352 123640187.81583154 94.22100000
-0.06887824 123640188.04237069 88.32300000
-0.16363747 123640187.88683070 94.21200000
-0.16329629 123640187.95682988 94.20600000
-0.10045870 123640188.12852564 89.76700000
-0.10007853 123640188.20652471 89.66700000
-0.06754764 123640188.31536745 86.94100000
-0.06720159 123640188.38636661 87.03100000
-0.13069799 123640188.28467488 91.11200000
-0.13031782 123640188.36267395 91.05500000
-0.16116635 123640188.39382468 91.99700000
-0.16082030 123640188.46482384 92.00900000
-0.16055711 123640188.51882319 92.31900000
-0.16021105 123640188.58982235 92.32900000
-0.19098161 123640188.63697289 94.25000000
-0.12769074 123640188.90166755 88.37500000
-0.19060144 123640188.71497196 94.26300000
-0.18915386 123640189.01196843 92.32300000
-0.18885167 123640189.07396770 92.33400000
-0.18847150 123640189.15196677 92.33300000
-0.15583421 123640189.48781168 89.72200000
-0.21967179 123640189.31612079 94.45500000
-0.18649266 123640189.55796194 89.68000000
-0.21932573 123640189.38711995 94.46900000
-0.24998419 123640189.45727021 94.47000000
-0.24964301 123640189.52726938 94.47500000
-0.21639647 123640189.98811281 92.30900000
-0.24705492 123640190.05826306 92.33200000
-0.24674786 123640190.12126233 92.33600000
-0.27801556 123640190.06641407 94.62500000
-0.24636768 123640190.19926140 92.32800000
-0.27766950 123640190.13741322 94.62700000
-0.27721622 123640190.23041213 94.15400000
-0.27683605 123640190.30841120 94.02700000
-0.27622680 123640190.43340971 93.03800000
-0.27588075 123640190.50440887 93.02900000
-0.27534948 123640190.61340757 92.39000000
-0.30676828 123640190.52755968 94.98600000
-0.27500831 123640190.68340674 92.36400000
-0.30642223 123640190.59855884 95.00000000
-0.27466225 123640190.75440590 92.34200000
-0.27378981 123640190.93340378 92.85000000
-0.27348275 123640190.99640302 92.93400000
-0.30414120 123640191.06655328 92.94400000
-0.33652099 123640190.98871018 95.29200000
-0.33621393 123640191.05170943 95.36400000
-0.30292270 123640191.31655031 92.34700000
-0.30231345 123640191.44154882 93.60900000
-0.33461526 123640191.37970553 95.63500000
-0.33396702 123640191.51270396 93.57300000
-0.33431307 123640191.44170479 95.65600000
-0.33366483 123640191.57470322 93.71800000
-0.33332365 123640191.64470239 93.73200000
-0.33278751 123640191.75470108 94.07300000
-0.33217826 123640191.87969959 92.31600000
-0.33244633 123640191.82470025 94.07200000
-0.33187608 123640191.94169886 92.37000000
-0.33149590 123640192.01969793 92.34700000
-0.36310479 123640191.89485051 96.05500000
-0.33080867 123640192.16069625 92.34500000
-0.39379736 123640191.95800085 96.06900000
-0.33050161 123640192.22369550 92.37500000
-0.33016043 123640192.29369467 92.34800000
-0.36157923 123640192.20784679 94.59100000
-0.39284693 123640192.15299854 96.20200000
-0.36127704 123640192.26984605 94.58100000
-0.39253987 123640192.21599779 96.27700000
-0.39219869 123640192.28599696 96.29000000
-0.42194083 123640192.54414499 96.52200000
-0.42163864 123640192.60614425 96.55500000
-0.42133158 123640192.66914350 96.56700000
-0.42102939 123640192.73114276 96.66900000
-0.42072233 123640192.79414202 96.70200000
-0.42038115 123640192.86414118 96.71100000
-0.42003997 123640192.93414035 96.70400000
-0.38736369 123640193.27798517 92.35900000
-0.45169354 123640193.00529549 96.67600000
-0.38701763 123640193.34898433 92.36000000
-0.45135236 123640193.07529464 96.65600000
-0.41813424 123640193.32513571 93.54100000
-0.45104530 123640193.13829389 96.65000000
-0.45070412 123640193.20829307 96.62700000
-0.45036294 123640193.27829224 96.59800000
-0.44994378 123640193.36429122 96.40600000
-0.44960260 123640193.43429038 96.42500000
-0.44933453 123640193.48928973 96.50000000
-0.44902747 123640193.55228898 96.57100000
-0.47972491 123640193.61443934 96.66900000
-0.47926676 123640193.70843822 96.37600000
-0.47888658 123640193.78643730 96.23600000
-0.47850641 123640193.86443637 96.15600000
-0.47816523 123640193.93443555 96.14200000
-0.44453365 123640194.47427803 92.36100000
-0.44423146 123640194.53627729 92.37000000
-0.44385129 123640194.61427636 92.36900000
-0.47374452 123640194.84142476 92.94400000
-0.50619173 123640194.54457939 96.94000000
-0.47340334 123640194.91142394 93.00000000
-0.47210686 123640195.17742078 92.37000000
-0.47180468 123640195.23942004 92.38600000
-0.47142450 123640195.31741911 92.38800000
-0.50207808 123640195.38856936 92.38900000
-0.50177590 123640195.45056863 92.40100000
-0.50143472 123640195.52056779 92.41900000
-0.50108866 123640195.59156695 92.44300000
-0.50074748 123640195.66156612 92.42400000
-0.50040630 123640195.73156528 92.41200000
-0.50006025 123640195.80256444 92.40100000
-0.49968008 123640195.88056351 92.40000000
-0.53037752 123640195.94271387 92.40200000
-0.52999735 123640196.02071294 92.41700000
-0.52896894 123640196.23171045 92.38800000
-0.52862289 123640196.30270959 92.39800000
-0.52828171 123640196.37270877 92.39000000
-0.52797952 123640196.43470803 92.42400000
-0.55963309 123640196.50586316 92.43200000
-0.55940401 123640196.55286260 92.66600000
0.67583259 123640167.87450142 92.87200000
0.67613478 123640167.93650068 92.83300000
0.67648083 123640168.00749984 92.83300000
0.67682201 123640168.07749902 92.82300000
0.64624154 123640168.16364908 92.92000000
0.61828816 123640168.78879276 92.87100000
0.61862934 123640168.85879192 92.87500000
0.61900951 123640168.93679100 92.94700000
0.61935556 123640169.00779015 92.96800000
0.61969674 123640169.07778932 92.96200000
0.62003792 123640169.14778849 92.98400000
0.62041809 123640169.22578757 93.01400000
0.62076414 123640169.29678673 93.04900000
0.59014468 123640169.37493689 93.09100000
0.59048586 123640169.44493605 93.10600000
0.59082704 123640169.51493523 93.11500000
0.59121209 123640169.59393428 93.15200000
0.59155327 123640169.66393346 93.18000000
0.59189445 123640169.73393263 93.22100000
0.59227462 123640169.81193170 93.22400000
0.56058206 123640169.87508692 93.25000000
0.56096223 123640169.95308599 93.26100000
0.56130341 123640170.02308516 93.27400000
0.56161047 123640170.08608441 93.27300000
0.56161047 123640170.08608441 92.54000000
0.56195165 123640170.15608358 92.49900000
0.56229283 123640170.22608274 92.47300000
0.56259989 123640170.28908201 92.45300000
0.56294107 123640170.35908116 92.43900000
0.56328225 123640170.42908034 92.43000000
0.53308683 123640170.59422947 93.47600000
0.56393049 123640170.56207876 92.35000000
0.56427654 123640170.63307792 92.34700000
0.53361809 123640170.70322818 92.34400000
0.53395927 123640170.77322735 92.33700000
0.53430532 123640170.84422651 92.33300000
0.53464650 123640170.91422567 92.33100000
0.47428490 123640171.25052387 95.24400000
0.53498768 123640170.98422484 92.35800000
0.47454810 123640171.30452323 95.15400000
0.53532886 123640171.05422401 92.32200000
0.47485516 123640171.36752248 95.05500000
0.53567492 123640171.12522316 92.29100000
0.47515735 123640171.42952174 94.97000000
0.47546441 123640171.49252099 94.88400000
0.47576659 123640171.55452025 94.80200000
0.50566470 123640171.32837185 92.25100000
0.47618576 123640171.64051923 95.00000000
0.44464429 123640171.73467408 95.30500000
0.44506346 123640171.82067306 95.50200000
0.50673211 123640171.54736924 92.33100000
0.44556060 123640171.92267185 95.94400000
0.50703430 123640171.60936850 92.29900000
0.44590178 123640171.99267101 95.95200000
0.41555039 123640172.12582053 95.85700000
0.41585258 123640172.18781979 95.81900000
0.44613086 123640172.03967047 94.00200000
0.41619863 123640172.25881895 95.79400000
0.44643305 123640172.10166973 93.99800000
0.41650082 123640172.32081822 95.74500000
0.44677910 123640172.17266889 93.89800000
0.41680788 123640172.38381746 95.69700000
0.41711007 123640172.44581674 95.64200000
0.41741713 123640172.50881599 95.59200000
0.41775831 123640172.57881516 95.54100000
0.47950007 123640172.32051116 92.32000000
0.41806050 123640172.64081442 95.49500000
0.47984125 123640172.39051032 92.34300000
0.41836756 123640172.70381367 95.44800000
0.44814869 123640172.45366554 92.31900000
0.41870874 123640172.77381283 95.41800000
0.44852886 123640172.53166462 92.30300000
0.38801617 123640172.83696318 95.32800000
0.44887004 123640172.60166378 92.33100000
0.38831835 123640172.89896245 95.32100000
0.44947929 123640172.72666231 93.12400000
0.44955728 123640172.74266212 92.30500000
0.44985946 123640172.80466138 92.30600000
0.42034640 123640173.10980885 92.61900000
0.42103363 123640173.25080717 92.59600000
0.39117451 123640173.48495549 94.84800000
0.42129683 123640173.30480653 92.38800000
0.39148157 123640173.54795474 94.81900000
0.39144258 123640173.53995484 93.71600000
0.42194507 123640173.43780495 92.29300000
0.42229112 123640173.50880411 92.27800000
0.36135439 123640173.72710371 94.41300000
0.42301247 123640173.65680236 91.43000000
0.36310902 123640174.08709943 94.55500000
0.36341121 123640174.14909869 94.54100000
0.39403067 123640174.07094853 92.29300000
0.39437185 123640174.14094770 92.29900000
0.42567854 123640174.20379585 90.01300000
0.39502009 123640174.27394612 90.01200000
0.36508786 123640174.49309461 92.31900000
0.36542904 123640174.56309378 92.31900000
0.33472591 123640174.82924658 94.31900000
0.30402846 123640174.89139694 94.32200000
0.30441351 123640174.97039600 94.30800000
0.30570511 123640175.23539285 94.25200000
0.33613449 123640175.11824316 92.27200000
0.33716290 123640175.32924065 92.29500000
0.33746509 123640175.39123991 92.12100000
0.39936282 123640175.16493553 88.06600000
0.33781114 123640175.46223906 92.09700000
0.33807434 123640175.51623842 91.79100000
0.27703038 123640175.71253829 94.20600000
0.33826442 123640175.55523796 91.35900000
0.27737155 123640175.78253745 94.19500000
0.30787404 123640175.68038757 92.27700000
0.40054232 123640175.40693265 87.25100000
0.30822009 123640175.75138673 92.29200000
0.40088350 123640175.47693183 87.19400000
0.30852228 123640175.81338599 92.26700000
0.33895166 123640175.69623628 89.98200000
0.33948292 123640175.80523500 89.39800000
0.37118035 123640175.74307975 86.76600000
0.33998007 123640175.90723377 88.60000000
0.24873093 123640176.26668280 94.19600000
0.24907699 123640176.33768195 94.20500000
0.34058932 123640176.03223230 88.08300000
0.37274003 123640176.06307596 87.29100000
0.28026671 123640176.37653039 92.32000000
0.37274003 123640176.06307596 85.82300000
0.28064688 123640176.45452946 92.32000000
0.37331029 123640176.18007457 86.79100000
0.37338827 123640176.19607438 85.59700000
0.37376844 123640176.27407345 85.59900000
0.37433870 123640176.39107206 85.11000000
0.22046479 123640177.03282967 94.22200000
0.25200626 123640176.93867481 92.30400000
0.22077185 123640177.09582892 94.20800000
0.25235231 123640177.00967397 92.30300000
0.37567417 123640176.66506881 84.63800000
0.34447389 123640176.82922283 84.94700000
0.34481507 123640176.89922200 84.93300000
0.34554129 123640177.04822023 84.78800000
0.19179005 123640177.50997509 94.21000000
0.37765301 123640177.07106398 83.62600000
0.19213123 123640177.57997426 94.20900000
0.22343305 123640177.64182243 92.33300000
0.34668180 123640177.28221744 83.23100000
0.22377911 123640177.71282159 92.34300000
0.34793929 123640177.54021439 84.14000000
0.31728084 123640177.61036465 84.13400000
0.34866065 123640177.68821262 82.14800000
0.19479731 123640178.12696776 92.31900000
0.19513849 123640178.19696693 92.31900000
0.16478709 123640178.33011645 94.22300000
0.34968906 123640177.89921013 81.81900000
0.16512827 123640178.40011561 94.22200000
0.13580530 123640178.74426262 94.20800000
0.35170689 123640178.31320520 80.68200000
0.13614647 123640178.81426179 94.21800000
0.29081402 123640178.54050469 83.02500000
0.35281329 123640178.54020250 80.37200000
0.78661645 123640177.67807791 51.93500000
0.13687270 123640178.96326002 92.33400000
0.13721388 123640179.03325918 92.33300000
0.75782961 123640178.13222361 51.91600000
0.32387048 123640178.96234858 79.22000000
0.13892952 123640179.38525501 92.32200000
0.13927070 123640179.45525418 92.32000000
0.32459183 123640179.11034682 78.91500000
0.32493301 123640179.18034600 78.94300000
0.07718289 123640179.64255902 94.22100000
0.54275090 123640178.93728147 65.86100000
0.07748995 123640179.70555827 94.22200000
0.26442031 123640179.48564456 81.91900000
0.26480048 123640179.56364363 81.90600000
0.48127721 123640179.25058481 68.43900000
0.07851836 123640179.91655576 94.21700000
0.07885954 123640179.98655494 94.20700000
0.26552671 123640179.71264187 81.73600000
0.32710681 123640179.62634070 77.74500000
0.26586789 123640179.78264104 81.66900000
0.42079863 123640179.56288329 71.81900000
0.32778917 123640179.76633903 77.49800000
0.35901788 123640179.81318739 75.73100000
0.32836430 123640179.88433763 75.64600000
0.32889556 123640179.99333633 76.85700000
0.35970511 123640179.95418571 75.04400000
0.08068729 123640180.36155048 92.31600000
0.32927573 123640180.07133542 76.86100000
0.05018480 123640180.46370035 94.23600000
0.08102847 123640180.43154965 92.29900000
0.05052598 123640180.53369953 94.22300000
0.08137452 123640180.50254880 92.40600000
0.05086716 123640180.60369870 94.23300000
0.05121321 123640180.67469786 94.22000000
0.08205688 123640180.64254715 92.44300000
0.08240293 123640180.71354629 92.33500000
0.30022082 123640180.47048177 77.45200000
0.30056200 123640180.54048094 77.44300000
0.23821099 123640180.67378642 80.66200000
0.26998154 123640180.62663101 77.62500000
0.02253360 123640181.15084329 94.23600000
0.02291377 123640181.22884236 94.23600000
0.02322083 123640181.29184163 94.24500000
0.02356201 123640181.36184078 94.33300000
-0.00809643 123640181.43199593 94.35000000
-0.00775037 123640181.50299507 94.44400000
-0.00740919 123640181.57299425 94.54000000
0.21086685 123640181.42392860 79.79200000
-0.00710213 123640181.63599350 94.55100000
0.21116904 123640181.48592786 78.63800000
-0.00672196 123640181.71399258 94.54400000
0.21162720 123640181.57992674 79.72300000
-0.00611271 123640181.83899109 94.26000000
0.02580892 123640181.82283531 92.32800000
-0.00573254 123640181.91699016 94.27700000
-0.00581052 123640181.90099035 92.85900000
-0.03642999 123640181.97914052 94.25100000
-0.00546447 123640181.97198951 92.59400000
-0.03608393 123640182.05013968 94.25900000
-0.00516228 123640182.03398877 92.44400000
-0.00482110 123640182.10398795 92.31300000
0.18283548 123640182.03307246 79.21100000
0.18317666 123640182.10307163 79.18800000
-0.03441215 123640182.39313561 94.46000000
0.15370259 123640182.41621901 79.65600000
-0.06476354 123640182.52628511 94.52800000
0.15408276 123640182.49421808 79.70700000
-0.06438337 123640182.60428420 94.23300000
0.15446293 123640182.57221715 79.81900000
-0.06407631 123640182.66728345 94.23400000
-0.03170709 123640182.94812901 92.34300000
-0.06205848 123640183.08127853 92.44800000
-0.06171730 123640183.15127769 92.35100000
-0.09240987 123640183.21442804 94.24600000
-0.06137125 123640183.22227685 92.52700000
-0.09206869 123640183.28442721 94.25100000
-0.06103007 123640183.29227602 92.55200000
-0.09172751 123640183.35442637 94.25000000
-0.06068889 123640183.36227518 92.68000000
-0.09138146 123640183.42542553 94.24600000
-0.06034771 123640183.43227436 92.61300000
-0.06000166 123640183.50327352 92.59100000
-0.05969947 123640183.56527278 92.58700000
0.15975609 123640183.65820426 76.85600000
-0.09031893 123640183.64342295 92.59500000
0.12813664 123640183.73635930 76.88400000
0.12851681 123640183.81435837 76.87400000
0.12889698 123640183.89235744 76.87100000
0.12928203 123640183.97135651 76.87400000
0.12969631 123640184.05635549 75.57100000
-0.12068089 123640183.97957492 94.23100000
0.13011548 123640184.14235447 75.29400000
-0.12037383 123640184.04257417 94.23700000
0.13050052 123640184.22135353 75.19300000
-0.12003265 123640184.11257334 94.24000000
-0.11969147 123640184.18257251 94.24600000
0.03791592 123640184.30680580 81.79400000
0.03826197 123640184.37780496 81.87500000
0.16379175 123640184.48619442 71.97300000
0.19578080 123640184.68904091 68.93200000
0.19619997 123640184.77503990 68.59700000
0.19661913 123640184.86103888 68.59700000
-0.11755666 123640184.62056731 92.33300000
0.22818902 123640184.97788639 65.69100000
-0.11721548 123640184.69056648 92.33200000
0.07169860 123640184.87764794 79.07000000
0.22860818 123640185.06388536 65.69500000
-0.11686943 123640184.76156563 92.34100000
0.22902734 123640185.14988434 65.37700000
0.29271383 123640185.29057561 61.52700000
0.29313299 123640185.37657459 61.51100000
0.29359115 123640185.47057347 60.83300000
0.41931101 123640185.61796246 51.93000000
0.29404443 123640185.56357236 60.83000000
-0.02039943 123640185.26810145 82.92400000
-0.17700683 123640185.14386328 94.21800000
-0.02005338 123640185.33910061 82.90400000
-0.17666077 123640185.21486244 94.21800000
-0.17635858 123640185.27686170 94.21600000
0.01189668 123640185.53394720 80.54900000
-0.17601253 123640185.34786086 94.22600000
0.01231585 123640185.61994618 80.48000000
-0.17567135 123640185.41786003 94.23600000
0.35988927 123640186.35226081 51.90900000
-0.17377050 123640185.80785540 92.32800000
-0.17346343 123640185.87085465 92.33300000
-0.04728541 123640186.11224252 81.99800000
-0.04690524 123640186.19024159 81.97200000
-0.17277620 123640186.01185296 92.34200000
-0.07778790 123640186.21439241 84.00700000
-0.20343465 123640186.08200324 92.34100000
-0.23364552 123640186.44915484 94.23200000
-0.10716044 123640186.75354198 83.35700000
-0.23330434 123640186.51915401 94.23100000
-0.10681926 123640186.82354113 83.45400000
-0.13732174 123640186.92569102 84.88700000
-0.26330968 123640186.72330268 94.23400000
-0.13694157 123640187.00369009 84.88800000
-0.26296850 123640186.79330185 94.22600000
-0.23101844 123640186.98814844 92.34600000
-0.23067726 123640187.05814761 92.33600000
-0.23033121 123640187.12914677 92.33700000
-0.13515282 123640187.37068574 84.87300000
-0.16577228 123640187.44883591 84.92600000
-0.16543110 123640187.51883507 84.94100000
-0.26030242 123640187.34029534 92.34200000
-0.25996125 123640187.41029452 92.33300000
-0.16447579 123640187.71483274 85.62500000
-0.19532433 123640187.74598347 86.99500000
-0.19502215 123640187.80798273 87.12300000
-0.19475408 123640187.86298208 85.60600000
-0.28993247 123640187.62144311 94.22400000
-0.19467609 123640187.87898189 87.15100000
-0.28959129 123640187.69144228 94.21200000
-0.22652462 123640187.91013749 88.25300000
-0.22618344 123640187.98013666 88.41600000
-0.22587638 123640188.04313591 88.50200000
-0.25672492 123640188.07428664 89.56400000
-0.25638374 123640188.14428580 89.67900000
-0.22484797 123640188.25413340 86.93400000
-0.31891426 123640188.03558928 94.22600000
-0.25607667 123640188.20728506 89.85800000
-0.31860720 123640188.09858854 94.22600000
-0.28692521 123640188.23843578 90.88800000
-0.22419972 123640188.38713183 87.09700000
-0.28684723 123640188.25443558 92.31900000
-0.28654504 123640188.31643486 92.31800000
-0.28612588 123640188.40243383 91.92800000
-0.28581882 123640188.46543309 92.08700000
-0.31651626 123640188.52758344 92.31700000
-0.31617021 123640188.59858260 92.32200000
-0.25329850 123640188.77727829 88.26300000
-0.25295245 123640188.84827743 88.22100000
-0.34790663 123640188.65273792 94.27700000
-0.34759957 123640188.71573718 94.27700000
-0.28330871 123640188.98042697 88.47600000
-0.31480062 123640188.87957926 92.30500000
-0.31445944 123640188.94957843 92.30700000
-0.37692742 123640189.05888419 94.38200000
-0.37662036 123640189.12188345 94.38400000
-0.34512358 123640189.22373115 92.30500000
-0.31244160 123640189.36357351 89.48800000
-0.34478240 123640189.29373030 92.33200000
-0.31149118 123640189.55857119 89.86400000
-0.31114512 123640189.62957035 89.88900000
-0.40495392 123640189.66902804 94.52700000
-0.40461274 123640189.73902722 94.54100000
-0.37304285 123640189.85587473 92.33200000
-0.37269680 123640189.92687389 92.33000000
-0.37140519 123640190.19187073 91.30800000
-0.40297508 123640190.07502322 94.63600000
-0.37105914 123640190.26286989 91.32000000
-0.40255592 123640190.16102220 94.37000000
-0.40163961 123640190.34901997 92.33000000
-0.40175658 123640190.32502025 93.82300000
-0.40125944 123640190.42701904 93.23700000
-0.43237604 123640190.40317042 94.88800000
-0.40061607 123640190.55901748 92.30900000
-0.40042111 123640190.59901699 92.73100000
-0.43039720 123640190.80916560 92.75000000
-0.42993905 123640190.90316448 92.35500000
-0.42959299 123640190.97416364 92.34800000
-0.42913971 123640191.06716253 93.00200000
-0.46151950 123640190.98931943 95.33300000
-0.42879366 123640191.13816169 93.07900000
-0.42788222 123640191.32515946 92.34600000
-0.49152972 123640191.19246811 95.49000000
-0.49122265 123640191.25546736 95.49900000
-0.45957478 123640191.38831468 93.47500000
-0.45851225 123640191.60631210 92.34300000
-0.45820519 123640191.66931134 92.34100000
-0.48996517 123640191.51346430 95.75000000
-0.48932180 123640191.64546272 93.85800000
-0.45782502 123640191.74731043 92.32900000
-0.48962399 123640191.58346346 95.77400000
-0.48901474 123640191.70846198 93.85700000
-0.52032143 123640191.64561382 95.80600000
-0.48874667 123640191.76346132 94.07100000
-0.52001437 123640191.70861307 95.88800000
-0.51971218 123640191.77061233 95.91900000
-0.51936613 123640191.84161149 95.96200000
-0.51906394 123640191.90361075 95.98100000
-0.51871789 123640191.97460991 95.96600000
-0.51837671 123640192.04460908 95.95400000
-0.51803553 123640192.11460826 95.93800000
-0.54869398 123640192.18475851 95.91600000
-0.54834793 123640192.25575767 95.90200000
-0.48509117 123640192.51345241 92.33500000
-0.54804574 123640192.31775694 95.87800000
-0.51574963 123640192.58360268 92.34700000
-0.54766557 123640192.39575601 95.87500000
-0.51536946 123640192.66160175 92.34100000
-0.54735851 123640192.45875525 95.86200000
-0.51506239 123640192.72460100 92.34900000
-0.54697834 123640192.53675433 95.74700000
-0.54663716 123640192.60675350 95.73900000
-0.54633010 123640192.66975275 95.73500000
-0.54598892 123640192.73975192 95.73600000
-0.54564774 123640192.80975109 95.73600000
-0.57730130 123640192.88090621 95.73200000
-0.57696012 123640192.95090538 95.73400000
-0.54313276 123640193.32574496 93.52500000
-0.54126602 123640193.70874041 92.36300000
-0.57296345 123640193.77089565 92.38300000
-0.57261740 123640193.84189481 92.38200000
-0.57227622 123640193.91189396 92.38200000
-0.57193504 123640193.98189314 92.37600000
-0.57155487 123640194.05989221 92.37800000
-0.57124781 123640194.12289146 92.38200000
-0.57090663 123640194.19289063 92.38700000
-0.57056057 123640194.26388979 92.40100000
-0.60121903 123640194.33404005 92.41300000
-0.60087785 123640194.40403922 92.43400000
-0.60057079 123640194.46703847 92.45500000
-0.60022961 123640194.53703764 92.47200000
-0.59988843 123640194.60703680 92.48800000
-0.59965935 123640194.65403625 92.75000000
-0.59935229 123640194.71703550 92.83300000
-0.63008872 123640194.77118595 92.94400000
-0.62955259 123640194.88118465 92.54100000
-0.62917241 123640194.95918372 92.49000000
-0.62887023 123640195.02118298 92.55400000
-0.62852417 123640195.09218214 92.59900000
-0.62826098 123640195.14618149 92.73600000
-0.62795392 123640195.20918074 92.81900000
-0.62761274 123640195.27917992 92.82100000
-0.62726668 123640195.35017908 92.81900000
-0.65792514 123640195.42032933 92.81900000
-0.65758396 123640195.49032851 92.80500000
-0.65720379 123640195.56832758 92.75700000
-0.65685773 123640195.63932674 92.73600000
-0.65651655 123640195.70932591 92.72500000
-0.65613638 123640195.78732498 92.68000000
-0.65579520 123640195.85732415 92.67600000
-0.65548814 123640195.92032340 92.67800000
-0.65514696 123640195.99032256 92.69700000
-0.68691750 123640196.03747797 92.93000000
-0.68649834 123640196.12347695 92.79100000
-0.68604018 123640196.21747583 92.53000000
-0.68566001 123640196.29547492 92.50700000
-0.68531883 123640196.36547408 92.48700000
0.54915742 123640167.53111476 92.44600000
0.51849897 123640167.60126503 92.45800000
0.51884503 123640167.67226417 92.47300000
0.51922520 123640167.75026326 92.51100000
0.51956638 123640167.82026242 92.54000000
0.51994655 123640167.89826149 92.57800000
0.52032672 123640167.97626057 92.62400000
0.52067277 123640168.04725972 92.64700000
0.52101395 123640168.11725889 92.65200000
0.49035550 123640168.18740916 92.66100000
0.49073567 123640168.26540823 92.67800000
0.49108172 123640168.33640739 92.71800000
0.49142290 123640168.40640655 92.73200000
0.49176408 123640168.47640572 92.71900000
0.49211014 123640168.54740489 92.70800000
0.49245131 123640168.61740404 92.68300000
0.49271938 123640168.67240340 92.58600000
0.49306056 123640168.74240257 92.55900000
0.46236312 123640168.80455291 92.51300000
0.46270917 123640168.87555207 92.47200000
0.46305035 123640168.94555125 92.45800000
0.46335741 123640169.00855049 92.44700000
0.46369859 123640169.07854967 92.41000000
0.46403977 123640169.14854883 92.38800000
0.46434683 123640169.21154809 92.37100000
0.46468801 123640169.28154725 92.35900000
0.46502919 123640169.35154642 92.35100000
0.43337563 123640169.42270155 92.34700000
0.43371681 123640169.49270071 92.34700000
0.43405798 123640169.56269988 92.34500000
0.43440404 123640169.63369904 92.34400000
0.43474522 123640169.70369820 92.33600000
0.43508640 123640169.77369738 92.33300000
0.43543245 123640169.84469654 92.33000000
0.43577363 123640169.91469571 92.33000000
0.40511518 123640169.98484597 92.32300000
0.40545636 123640170.05484514 92.33200000
0.34654233 123640170.68813980 96.02300000
0.34684939 123640170.75113906 95.94300000
0.34715158 123640170.81313832 95.84600000
0.37704969 123640170.58698991 93.45800000
0.31542003 123640170.86829363 95.74800000
0.31572221 123640170.93029289 95.67900000
0.31602928 123640170.99329215 95.59700000
0.31633146 123640171.05529141 95.48800000
0.31659953 123640171.11029075 95.41500000
0.37826819 123640170.83698694 92.35100000
0.37857037 123640170.89898621 92.33000000
0.37891643 123640170.96998537 92.31900000
0.28704748 123640171.40743832 96.40200000
0.37925761 123640171.03998452 92.33300000
0.28735454 123640171.47043757 96.37000000
0.37959878 123640171.10998370 92.31900000
0.28769572 123640171.54043674 96.31400000
0.34894033 123640171.18013395 92.30100000
0.28799791 123640171.60243601 96.30400000
0.28830497 123640171.66543525 96.26100000
0.28860715 123640171.72743452 96.17700000
0.31896342 123640171.59528500 94.61200000
0.34996874 123640171.39113145 92.30500000
0.28895321 123640171.79843368 96.12500000
0.31930460 123640171.66528417 94.62400000
0.28925539 123640171.86043294 96.09700000
0.28956246 123640171.92343220 96.06900000
0.25890400 123640171.99358246 96.02700000
0.29040078 123640172.09543015 94.00800000
0.29101003 123640172.22042866 93.80200000
0.29135121 123640172.29042783 93.78900000
0.32174159 123640172.16527823 92.31300000
0.32208277 123640172.23527740 92.31700000
0.26168218 123640172.56357569 95.54100000
0.26202823 123640172.63457485 95.51400000
0.29256971 123640172.54042487 93.46900000
0.29279879 123640172.58742431 92.31900000
0.23228122 123640172.89172289 95.32200000
0.26274958 123640172.78257309 93.03700000
0.26309076 123640172.85257226 93.02300000
0.26350992 123640172.93857123 92.29900000
0.26392909 123640173.02457021 92.57800000
0.26449935 123640173.14156882 92.25700000
0.23479619 123640173.40771675 94.90200000
0.20313775 123640173.47787189 94.88800000
0.26537666 123640173.32156669 92.71700000
0.26556675 123640173.36056621 92.31800000
0.23517637 123640173.48571584 93.17800000
0.23578562 123640173.61071435 93.86900000
0.20424415 123640173.70486920 94.26300000
0.20470231 123640173.79886808 94.62500000
0.20500449 123640173.86086734 94.51400000
0.26724340 123640173.70456213 91.27700000
0.26758458 123640173.77456130 91.25900000
0.23761336 123640173.98570989 92.29500000
0.23795454 123640174.05570906 92.29300000
0.23750126 123640173.96271016 90.80900000
0.17602269 123640174.27501352 94.49500000
0.17636875 123640174.34601268 94.47600000
0.23890984 123640174.25170673 89.90500000
0.23925102 123640174.32170589 89.88900000
0.17800153 123640174.68100870 94.37500000
0.14730896 123640174.74415904 94.36400000
0.14765014 123640174.81415822 94.35800000
0.20904016 123640174.68885751 92.33600000
0.24054750 123640174.58770274 89.48600000
0.17941499 123640174.97100525 92.29000000
0.17971718 123640175.03300452 92.29100000
0.14966797 123640175.22815329 94.24600000
0.14997504 123640175.29115255 94.23600000
0.24233626 123640174.95469838 88.45800000
0.15008714 123640175.31415227 92.30500000
0.15046731 123640175.39215134 92.29500000
0.15073538 123640175.44715069 92.05700000
0.15107656 123640175.51714987 92.05100000
0.15149572 123640175.60314883 92.30500000
0.18246124 123640175.59599783 90.90200000
0.12164148 123640175.83829714 94.21000000
0.15176379 123640175.65814818 90.88800000
0.24477325 123640175.45469244 87.14000000
0.12198266 123640175.90829632 94.21600000
0.21315381 123640175.53284748 87.10000000
0.09032422 123640175.97845145 94.20800000
0.18322158 123640175.75199598 89.86300000
0.18345066 123640175.79899542 89.52900000
0.09097246 123640176.11144987 94.20800000
0.21410423 123640175.72784516 86.85900000
0.09135263 123640176.18944894 94.20400000
0.18390394 123640175.89199431 88.47600000
0.18421100 123640175.95499356 88.36400000
0.18451319 123640176.01699282 88.22200000
0.18497134 123640176.11099172 87.18100000
0.18527840 123640176.17399096 86.90000000
0.09291718 123640176.51044513 92.32300000
0.21631215 123640176.18083979 85.62700000
0.09325836 123640176.58044429 92.32900000
0.21669720 123640176.25983885 85.58700000
0.09359954 123640176.65044346 92.32000000
0.09428677 123640176.79144178 92.31900000
0.21760863 123640176.44683662 84.99000000
0.09462795 123640176.86144096 92.31900000
0.21825687 123640176.57983504 84.75700000
0.03403727 123640177.15073971 94.22100000
0.03438332 123640177.22173887 94.22600000
0.03472450 123640177.29173803 94.21800000
0.18877793 123640176.89198244 84.92500000
0.03506568 123640177.36173721 94.21200000
0.18912398 123640176.96298160 84.89000000
0.03537274 123640177.42473646 94.20800000
0.18946516 123640177.03298075 84.83400000
0.18954314 123640177.04898056 83.52700000
0.18992332 123640177.12697965 83.51300000
0.19026449 123640177.19697881 83.30500000
0.19060567 123640177.26697798 83.31300000
0.03739058 123640177.83873154 92.32900000
0.03773176 123640177.90873072 92.32900000
0.03807293 123640177.97872987 92.31900000
0.16155076 123640177.66612433 84.05600000
0.03841899 123640178.04972903 92.31600000
0.03872118 123640178.11172830 92.30100000
0.16227212 123640177.81412257 83.94500000
0.19293057 123640177.74397232 82.04100000
0.19327175 123640177.81397149 81.86400000
0.19365192 123640177.89197056 81.87300000
-0.02226024 123640178.52603044 94.22200000
-0.02191419 123640178.59702960 94.22400000
-0.02157301 123640178.66702877 94.21100000
0.16501617 123640178.37711589 80.59700000
0.16535735 123640178.44711506 80.43000000
0.13511806 123640178.60326430 82.95800000
0.16573752 123640178.52511413 80.43300000
0.13546412 123640178.67426345 82.92000000
0.13580530 123640178.74426262 82.88800000
0.53791590 123640177.94529325 55.64500000
0.56925671 123640178.01514132 54.62500000
-0.01913602 123640179.16702282 92.33000000
-0.01883383 123640179.22902209 92.33300000
-0.01848778 123640179.30002125 92.31900000
0.16817452 123640179.02510819 79.14900000
0.44692427 123640178.56274408 61.65300000
0.16852057 123640179.09610735 78.98600000
0.44719234 123640178.61774342 60.68700000
0.57108446 123640178.39013687 51.91500000
0.16890074 123640179.17410642 78.96600000
0.35468002 123640178.92319795 65.77400000
0.35502120 123640178.99319713 65.30500000
-0.07820601 123640179.76831788 94.22400000
-0.07785996 123640179.83931704 94.22500000
-0.07755777 123640179.90131630 94.22200000
0.10807042 123640179.61940819 81.84700000
0.29462061 123640179.32149541 68.52700000
0.10845059 123640179.69740728 81.80300000
0.17099169 123640179.60310133 77.68000000
0.17137186 123640179.68110040 77.62500000
0.23280086 123640179.56379960 72.30900000
0.17175690 123640179.76009946 77.55700000
0.17190800 123640179.79109910 75.58300000
0.17228817 123640179.86909817 75.56900000
0.17266834 123640179.94709724 75.25000000
0.14219997 123640180.05624704 76.87500000
-0.10585234 123640180.45646080 94.24000000
-0.07504279 123640180.41731016 92.30900000
-0.10551116 123640180.52645996 94.24500000
-0.07470161 123640180.48730934 92.37500000
-0.10520410 123640180.58945921 94.24000000
0.14334536 123640180.29124425 76.85600000
-0.10486292 123640180.65945838 94.23600000
-0.10501401 123640180.62845875 92.43400000
-0.10467283 123640180.69845793 92.31900000
0.08141351 123640180.51054871 80.72200000
0.08179368 123640180.58854778 80.73600000
0.11252524 123640180.53339735 77.48500000
0.08213486 123640180.65854695 80.72400000
0.11290542 123640180.61139642 77.60800000
-0.13450353 123640181.14360860 94.22600000
-0.13415747 123640181.21460776 94.23500000
-0.16485492 123640181.27675812 94.23400000
-0.16450886 123640181.34775728 94.23500000
-0.16382650 123640181.48775561 94.51300000
0.05479072 123640181.40868914 79.75700000
-0.16313927 123640181.62875395 94.62500000
0.05517089 123640181.48668821 79.74000000
-0.16218884 123640181.82375163 94.24400000
-0.16222784 123640181.81575172 92.31800000
-0.19280830 123640181.90190180 94.25000000
-0.16188178 123640181.88675088 92.67700000
-0.19246225 123640181.97290094 94.40500000
-0.16154060 123640181.95675004 92.64600000
-0.19216006 123640182.03490020 94.23600000
-0.19181888 123640182.10489938 94.43200000
-0.16089236 123640182.08974846 92.32000000
0.02675935 123640182.01783299 79.19200000
-0.19147283 123640182.17589854 94.44000000
0.02714440 123640182.09683205 79.20900000
-0.22148304 123640182.37904721 94.59900000
-0.22114186 123640182.44904639 94.48600000
-0.22083480 123640182.51204564 94.33100000
-0.00299336 123640182.47898349 79.70800000
-0.22045463 123640182.59004471 94.25200000
-0.00261319 123640182.55698256 79.66900000
-0.22015244 123640182.65204397 94.52200000
-0.00226713 123640182.62798172 78.53500000
-0.21980639 123640182.72304313 94.25000000
0.03011266 123640182.70582482 76.90200000
-0.21946521 123640182.79304230 94.25000000
-0.18812440 123640182.86289038 92.47200000
0.03087300 123640182.86182296 76.86100000
-0.21881697 123640182.92604072 92.58300000
-0.00074645 123640182.93997802 76.89700000
-0.21843680 123640183.00403979 92.45900000
-0.00036628 123640183.01797709 76.83200000
-0.21809562 123640183.07403897 92.56900000
-0.21778856 123640183.13703822 92.58300000
-0.21744738 123640183.20703739 92.59900000
-0.24910582 123640183.27719252 94.23700000
-0.21710620 123640183.27703655 92.62000000
-0.24879876 123640183.34019177 94.23600000
-0.21676014 123640183.34803571 92.76100000
-0.24845758 123640183.41019094 94.23600000
-0.21641897 123640183.41803488 92.63800000
-0.24811640 123640183.48019011 94.23300000
-0.24773623 123640183.55818918 92.70700000
-0.24742917 123640183.62118843 92.68100000
-0.24704899 123640183.69918750 92.56600000
-0.02755445 123640183.80011889 76.88800000
-0.24670781 123640183.76918668 92.55500000
-0.02717428 123640183.87811796 76.88700000
-0.02679411 123640183.95611703 76.89200000
-0.27713232 123640183.88733637 94.23200000
-0.02637494 123640184.04211602 75.45800000
-0.27679114 123640183.95733553 94.22300000
-0.02599477 123640184.12011509 75.43000000
-0.02561460 123640184.19811416 75.41700000
-0.05634616 123640184.25326461 77.61200000
-0.11915533 123640184.29257120 81.82100000
-0.05592700 123640184.33926359 77.62800000
-0.30642118 123640184.23848329 94.23000000
-0.11877516 123640184.37057027 81.85500000
0.00675462 123640184.47895974 72.07900000
-0.30611411 123640184.30148254 94.23100000
0.03970955 123640184.67480144 68.80500000
-0.27431515 123640184.46532950 92.32300000
