-0.33488365 1619443.01608946 71.97200000
-0.17935802 1619445.97552872 88.75100000
-0.31074274 1619443.70823627 76.29100000
-0.18288634 1619445.89864211 88.76300000
-0.37797281 1619442.78850799 72.23700000
-0.24214855 1619445.29368758 86.84100000
-0.27350419 1619445.20559204 86.84700000
-0.27665888 1619445.12777785 86.86400000
-0.37614869 1619443.03288817 75.47500000
-0.41325975 1619442.79046546 75.13800000
-0.28508675 1619445.23434694 88.76400000
-0.41586049 1619442.71395248 75.19100000
-0.29123048 1619445.16395337 88.78500000
-0.47551102 1619442.19293155 72.92800000
-0.34527655 1619444.62901878 86.85500000
-0.35049270 1619444.55899884 86.86300000
-0.48148911 1619442.20777279 74.41300000
-0.51247112 1619442.11874967 74.45600000
-0.76068363 1619437.63099527 50.70800000
-0.55211122 1619441.46240475 71.44600000
-0.52381633 1619441.89533014 74.15200000
-0.78069406 1619437.76631926 52.48400000
-0.55311050 1619441.79944035 74.16500000
-0.39343090 1619444.49965820 88.73700000
-0.39695922 1619444.42277159 88.75800000
-0.55755004 1619441.56155322 73.82300000
-0.39955996 1619444.34625861 88.75200000
-0.58684422 1619441.46566343 73.84500000
-0.45323239 1619443.81039644 86.86400000
-0.43667102 1619444.10383590 88.75300000
-0.45583313 1619443.73388346 86.83400000
-0.63476122 1619441.08412842 73.26200000
-0.46765303 1619444.01481279 88.77700000
-0.63216048 1619441.16064140 74.09900000
-0.48995515 1619443.48404013 86.86100000
-0.52223837 1619443.39557096 86.86200000
-0.68858462 1619440.38002542 71.46100000
-0.71695121 1619440.28450926 71.45500000
-0.79751626 1619438.81174646 63.94400000
-0.68997221 1619440.80099463 74.54100000
-0.55337134 1619443.13830701 86.83200000
-0.71134675 1619440.27059560 72.30500000
-0.81024906 1619439.00929614 65.94700000
-0.55896112 1619443.06921465 86.85600000
-0.78732129 1619439.20396076 67.36900000
-0.53903708 1619443.35430592 88.73600000
-0.56118823 1619442.99177410 86.89600000
-0.54462686 1619443.28521356 88.75100000
-0.59048240 1619442.89588431 86.86100000
-0.57691008 1619443.19674439 88.75300000
-0.59308314 1619442.81937133 86.86300000
-0.57913719 1619443.11930384 88.76100000
-0.59269483 1619442.73543773 86.86400000
-0.58173793 1619443.04279086 88.76200000
-0.62460442 1619442.64604098 86.84800000
-0.61103210 1619442.94690107 88.77100000
-0.61363284 1619442.87038809 88.76500000
-0.61585995 1619442.79294753 88.76700000
-0.64814317 1619442.70447836 88.76600000
-0.65074391 1619442.62796538 88.76600000
-0.65035560 1619442.54403178 88.77400000
-0.68525423 1619442.46205565 88.77900000
-0.68110026 1619442.20283423 87.85900000
-0.70142729 1619442.08468259 87.71900000
-0.72120037 1619441.96783215 87.57800000
-0.74152740 1619441.84968050 87.40500000
-0.89828967 1619439.47945127 75.98000000
-0.90051678 1619439.40201071 76.02200000
-0.95732922 1619438.70532833 73.11100000
-1.02579592 1619438.37481008 74.12500000
-0.98647243 1619438.77767937 76.82300000
-1.05171274 1619438.18756607 74.53900000
-1.05431348 1619438.11105309 74.55500000
-1.02956159 1619438.55009790 77.03700000
-1.13452838 1619437.72405494 75.68300000
-1.14925095 1619437.59198963 75.89700000
-1.14886264 1619437.50805603 75.90400000
-1.14687288 1619437.83767102 77.84400000
-1.15507808 1619437.77507170 77.95600000
-1.16066787 1619437.70597934 78.05800000
-1.16681160 1619437.63558577 78.10500000
-1.17501680 1619437.57298646 78.20700000
-1.20936149 1619437.49231154 78.29100000
-1.21849427 1619437.42933859 78.38800000
-1.22109501 1619437.35282561 78.45200000
-1.22631116 1619437.28280567 78.51300000
-1.22891190 1619437.20629269 78.55200000
-1.25820607 1619437.11040290 78.55200000
-1.27552938 1619436.90182461 78.00300000
-1.27476744 1619436.81696343 78.01300000
-1.30612308 1619436.72886789 78.02700000
-1.31824491 1619436.67331557 78.17900000
-1.34063341 1619436.56295817 78.46200000
1.01039383 1619453.97650795 91.43800000
1.00779310 1619453.89999497 91.43400000
0.81504653 1619452.20524048 88.30200000
0.81189184 1619452.12742629 88.32100000
0.77754715 1619452.04675138 88.34700000
0.77532005 1619451.96931082 88.37400000
0.77179173 1619451.89242421 88.40100000
0.76620194 1619451.82333185 88.42700000
0.73521993 1619451.73430873 88.45400000
0.73169162 1619451.65742212 88.48200000
0.72610183 1619451.58832976 88.50200000
0.71774567 1619451.35748961 86.92700000
0.72088567 1619451.51830982 88.54100000
0.71551856 1619451.28004905 86.91700000
0.70969143 1619451.46313112 88.74000000
0.68416292 1619451.19195351 86.93300000
0.68637535 1619451.35240010 88.60000000
0.68975270 1619451.26104588 88.44200000
0.68102291 1619451.03113330 86.86100000
0.65746948 1619451.17257671 88.43900000
0.65004090 1619450.94211019 86.85800000
0.66606300 1619451.15124242 88.83200000
0.64651258 1619450.86522358 86.87500000
0.65785779 1619451.08864311 88.93000000
0.64391184 1619450.78871060 86.86300000
0.64965259 1619451.02604379 89.05200000
0.64107376 1619450.96437205 89.18100000
0.62412408 1619450.75486618 87.78000000
0.62895193 1619450.90881972 89.34900000
0.61177959 1619450.86848226 89.62500000
0.57843418 1619450.45077173 86.86500000
0.60357438 1619450.80588294 89.75000000
0.57527950 1619450.37295754 86.89200000
0.59835823 1619450.73586300 89.77900000
0.56408525 1619450.31777885 87.05500000
0.56308596 1619450.65481445 89.80200000
0.56746260 1619450.22642463 86.94500000
0.56048522 1619450.57830147 89.82800000
0.55825812 1619450.50086092 89.83300000
0.52697418 1619450.07535614 87.07700000
0.53195299 1619450.39755051 89.72200000
0.52736249 1619449.99142254 87.04500000
0.52935225 1619450.32103753 89.71200000
0.51878366 1619449.92975080 87.12500000
0.50421205 1619449.96592632 87.94800000
0.48910118 1619449.91779461 88.14900000
0.48388502 1619449.84777467 88.24600000
0.44218346 1619449.19922399 84.61100000
0.43958272 1619449.12271101 84.62400000
0.46411194 1619449.73092423 89.00900000
0.41665495 1619448.92804639 83.91300000
0.45199011 1619449.67537190 89.16600000
0.42983896 1619449.31284007 86.86400000
0.44976300 1619449.59793134 89.18100000
0.39450379 1619448.56551456 83.16500000
0.41786809 1619449.42552858 89.09700000
0.36298252 1619448.39218421 82.63200000
0.41526735 1619449.34901559 89.10600000
0.38428534 1619449.25999248 89.10500000
0.39088909 1619448.90904321 86.87500000
0.35860588 1619448.82057404 86.88800000
0.31974239 1619447.99636191 81.74800000
0.19213215 1619444.55009544 60.20800000
0.33208689 1619447.88274583 81.50200000
0.31231381 1619447.76589540 81.31600000
0.31965601 1619448.41677718 86.87500000
0.31512841 1619448.67692617 88.93200000
0.25266328 1619447.24487446 80.18000000
0.31551672 1619448.59299257 88.93300000
0.26063114 1619447.55964821 82.67900000
0.28217131 1619448.17528205 86.87700000
0.27680420 1619447.93702128 85.44400000
0.26545898 1619447.71360175 84.06900000
0.25586619 1619448.07197164 86.81900000
0.26223259 1619447.97319680 86.63200000
0.25601715 1619448.24021247 88.79000000
0.25248883 1619448.16332586 88.79100000
0.24489461 1619447.84762453 86.88500000
0.17292307 1619446.35352745 77.94600000
0.17307403 1619446.52176828 79.45400000
0.10545565 1619445.68597359 76.56800000
0.00795560 1619443.92069890 66.68200000
0.17865501 1619447.59454684 88.75100000
-0.01834952 1619443.81738849 66.66300000
0.14767300 1619447.50552373 88.75200000
0.07033435 1619445.77316588 78.61500000
0.01651095 1619445.06906287 75.06300000
0.14154395 1619447.35212414 88.77400000
0.01391021 1619444.99254989 75.10100000
0.13632779 1619447.28210420 88.80100000
0.10205481 1619446.86402004 86.87300000
0.07368822 1619446.76850388 86.87500000
-0.04574031 1619444.47152895 73.65000000
0.06847206 1619446.69848395 86.88800000
-0.04236296 1619444.38017473 73.61100000
-0.09618635 1619443.67607173 70.11100000
-0.04114981 1619444.87765692 77.47500000
-0.08720453 1619443.57080385 69.97200000
-0.04076150 1619444.79372332 77.48300000
-0.10201348 1619443.85915380 72.21900000
-0.09863613 1619443.76779958 72.14800000
-0.13927551 1619443.44849026 71.41800000
-0.14187625 1619443.37197728 71.42800000
-0.17024284 1619443.27646112 71.44300000
-0.17040848 1619443.19122632 71.45200000
-0.03580618 1619446.20260992 88.75200000
-0.03803329 1619446.12516936 88.75800000
-0.07490701 1619445.63057223 86.00900000
-0.04063403 1619446.04865638 88.76300000
-0.07490701 1619445.63057223 86.48700000
-0.06892891 1619445.61573099 86.81900000
-0.08272390 1619445.48403931 86.52700000
-0.11500712 1619445.39557014 86.55500000
-0.10603998 1619445.37330828 86.86100000
-0.10864072 1619445.29679530 86.86500000
-0.26579129 1619443.01049967 75.42800000
-0.28274097 1619442.80099380 75.22000000
-0.33901414 1619442.18861865 72.93000000
-0.54758655 1619438.35720917 52.42400000
-0.18608924 1619445.07154494 88.79100000
-0.34161488 1619442.11210567 72.97400000
-0.57051432 1619438.16254455 52.45600000
-0.21436945 1619444.55561352 86.86900000
-0.35633744 1619441.98004036 73.20900000
-0.41598797 1619441.45901942 71.44800000
-0.64434814 1619437.59376553 51.11800000
-0.39030850 1619441.89843786 74.19600000
-0.64120813 1619437.75458574 52.48600000
-0.25769596 1619444.58020648 88.74000000
-0.25992307 1619444.50276592 88.75700000
-0.45110927 1619441.54621171 73.81800000
-0.64796284 1619437.93729418 55.00700000
-0.31396913 1619443.96783132 86.84300000
-0.45333638 1619441.46877115 73.84200000
-0.31749745 1619443.89094471 86.85900000
-0.31972455 1619443.81350416 86.87100000
-0.49826434 1619441.07981552 73.26300000
-0.33152978 1619444.01142746 88.77100000
-0.64621042 1619438.51908360 60.54100000
-0.33468447 1619443.93361328 88.77100000
-0.53591468 1619440.75308558 72.94700000
-0.38574148 1619443.39125806 86.84900000
-0.65281417 1619438.87003287 63.79800000
-0.38834222 1619443.31474508 86.87000000
-0.54733159 1619440.86707529 74.48300000
-0.58082796 1619440.28112394 71.45800000
-0.55048628 1619440.78926111 74.52600000
-0.57837818 1619440.18939609 71.44500000
-0.60453234 1619440.25432651 72.28000000
-0.42246424 1619443.06490175 86.84700000
-0.67360122 1619439.17322407 67.30300000
-0.45381988 1619442.97680622 86.85800000
-0.43688488 1619443.26931811 88.74800000
-0.45435915 1619442.89249898 86.86100000
-0.44041320 1619443.19243149 88.75700000
-0.45658626 1619442.81505843 86.86100000
-0.45918700 1619442.73854545 86.86500000
-0.66301795 1619439.48150477 70.63700000
-0.45381988 1619442.97680622 88.46100000
-0.68319401 1619439.53159396 71.37700000
-0.47752427 1619442.95000879 88.78800000
-0.48012501 1619442.87349581 88.77700000
-0.50849160 1619442.77797965 88.76300000
-0.51463533 1619442.70758608 88.77800000
-0.52819297 1619442.32371997 86.86200000
-0.71171157 1619439.26783697 71.84700000
-0.51424702 1619442.62365248 88.77300000
-0.52743104 1619442.23885879 86.85800000
-0.55971425 1619442.15038962 86.88300000
-0.54614193 1619442.45124971 88.75800000
-0.55932595 1619442.06645602 86.85900000
-0.54836904 1619442.37380915 88.75100000
-0.56192668 1619441.98994304 86.87000000
-0.55096978 1619442.29729617 88.76300000
-0.59383627 1619441.90054630 86.87500000
-0.58325300 1619442.20882700 88.76300000
-0.59344796 1619441.81661270 86.85000000
-0.58548011 1619442.13138645 88.76500000
-0.59604870 1619441.74009972 86.86100000
-0.58808085 1619442.05487347 88.76600000
-0.61737502 1619441.95898368 88.76700000
-0.61997576 1619441.88247070 88.76500000
-0.62220287 1619441.80503014 88.76600000
-0.65448608 1619441.71656097 88.76100000
-0.65708682 1619441.64004799 88.76500000
-0.66206563 1619441.31785362 87.22300000
-0.65632488 1619441.55518681 88.75000000
-0.69902574 1619441.24367175 87.30400000
-0.68561906 1619441.45929703 88.73300000
-0.67663724 1619441.35402914 88.57000000
-0.72494255 1619441.05642774 87.58300000
-0.72754329 1619440.97991476 87.62600000
-0.73966512 1619440.92436243 87.73100000
-0.92080564 1619438.11416081 74.59600000
-0.74787032 1619440.86176311 87.83200000
-0.89904280 1619438.56062624 77.08000000
-0.75346011 1619440.79267075 87.87700000
-0.75568722 1619440.71523019 87.88900000
-0.98982630 1619437.78234136 75.59900000
-0.99242704 1619437.70582838 75.61400000
-1.01535480 1619437.51116375 75.94600000
-1.01635409 1619437.84819936 77.91900000
-1.02157025 1619437.77817942 77.97200000
-1.02417098 1619437.70166644 78.03700000
-1.03031472 1619437.63127287 78.08300000
-1.10414854 1619437.06249386 77.15400000
-1.09018791 1619437.27942035 78.51000000
-1.09540407 1619437.20940041 78.60600000
-1.13366538 1619437.13577248 78.68800000
-1.13888154 1619437.06575254 78.78600000
-1.14447132 1619436.99666018 78.83000000
-1.15061505 1619436.92626661 78.91900000
-1.15620484 1619436.85717425 79.00000000
-1.16441004 1619436.79457493 79.11000000
-1.19669326 1619436.70610576 79.14800000
-1.19892037 1619436.62866521 79.15500000
-1.22483719 1619436.44142120 78.76000000
-1.23341602 1619436.37974946 78.84900000
-1.24162122 1619436.31715014 78.97500000
1.16760606 1619454.00641310 91.45800000
0.89672073 1619451.83386019 88.43300000
0.89150458 1619451.76384025 88.45600000
0.88890384 1619451.68732727 88.47500000
0.85699425 1619451.59793052 88.50000000
0.85140446 1619451.52883816 88.52700000
0.84880372 1619451.45232518 88.55500000
0.84265999 1619451.38193161 88.58300000
0.84005925 1619451.30541863 88.61100000
0.80870361 1619451.21732309 88.63300000
0.80255988 1619451.14692953 88.64800000
0.80110939 1619450.90162177 86.96800000
0.80034745 1619450.98648295 88.11100000
0.77703137 1619450.87575192 87.91100000
0.78040872 1619450.78439770 87.80900000
0.75802023 1619450.67404030 87.62500000
0.73470415 1619450.56330927 87.47300000
0.74368597 1619450.45804139 87.24700000
0.72036989 1619450.34731036 87.06700000
0.69499234 1619450.24437359 87.00000000
0.68678714 1619450.18177427 87.11500000
0.68026978 1619450.11230828 87.14800000
0.68065809 1619450.02837468 87.13800000
0.68862594 1619450.34314842 89.66800000
0.67805735 1619449.95186170 87.14600000
0.66324840 1619450.24021165 89.61100000
0.64913681 1619449.85504433 87.11100000
0.66270913 1619450.15590442 89.55200000
0.65229149 1619449.93285852 88.11200000
0.64614776 1619449.86246495 88.16400000
0.61763020 1619449.59870796 87.02700000
0.59846810 1619449.22875551 84.66200000
0.59586736 1619449.15224253 84.65500000
0.61778117 1619449.76694879 89.09800000
0.58190673 1619448.93531604 83.83300000
0.58250890 1619449.68590024 89.13800000
0.57729275 1619449.61588030 89.17500000
0.55813064 1619449.24592786 86.84500000
0.57768105 1619449.53194670 89.14100000
0.55078844 1619448.59504608 83.19500000
0.57508031 1619449.45543372 89.15200000
0.54317073 1619449.36603698 89.14000000
0.52400862 1619448.99608453 86.85000000
0.52563356 1619448.32294089 82.56600000
0.51841883 1619448.92699217 86.88800000
0.36651671 1619444.62033805 59.93100000
0.35402125 1619444.56571329 60.17300000
0.47379993 1619447.94845287 81.80800000
0.32303924 1619444.47669018 60.26300000
0.44283260 1619447.77642374 81.29900000
0.40557057 1619447.36576020 80.34400000
0.44664648 1619448.35041890 86.86100000
0.41492602 1619447.25956474 80.18100000
0.44640913 1619448.60259334 88.90400000
0.40295515 1619447.37225324 81.39000000
0.44380840 1619448.52608036 88.90600000
0.39896682 1619447.71670947 84.02400000
0.40953542 1619448.10799620 86.87500000
0.38976233 1619447.99114576 86.67800000
0.41230179 1619448.26974399 88.80300000
0.38039221 1619448.18034724 88.81600000
0.37541340 1619447.85815287 86.86200000
0.37281266 1619447.78163989 86.88800000
0.30359282 1619446.53229662 79.43000000
0.30697018 1619446.44094240 79.37700000
0.23298539 1619445.70392255 76.56800000
0.34145702 1619447.69354435 88.75000000
0.14146344 1619443.92380662 66.66700000
0.30954743 1619447.60414761 88.77200000
0.13886270 1619443.84729364 66.74500000
0.22960804 1619445.79527677 78.62700000
0.20721954 1619445.68491938 78.50900000
0.17671222 1619445.09154740 75.04400000
0.17019486 1619445.02208141 75.16300000
0.26983563 1619447.28521192 88.77700000
0.26723489 1619447.20869894 88.78500000
0.23257360 1619446.87454838 86.87000000
0.23296191 1619446.79061478 86.83600000
0.11652242 1619444.48621923 73.61100000
0.23036117 1619446.71410180 86.87100000
0.11392168 1619444.40970625 73.65400000
0.19845158 1619446.62470506 86.87700000
0.06961938 1619443.68464260 70.04300000
0.04331425 1619443.58133219 69.98600000
0.11851219 1619444.81583422 77.49800000
0.06063756 1619443.78991048 72.17500000
0.03134339 1619443.69402069 72.16600000
0.02092576 1619443.47097479 71.41600000
-0.00836842 1619443.37508500 71.42400000
-0.00798011 1619443.29115140 71.43900000
-0.01020722 1619443.21371084 71.45700000
0.12439509 1619446.22509445 88.75800000
0.08828331 1619445.64563613 85.55500000
0.11825135 1619446.15470088 88.79900000
0.08529426 1619445.65305675 86.04300000
0.11863966 1619446.07076728 88.75700000
0.07931616 1619445.66789799 86.56600000
0.07915053 1619445.58266318 86.52900000
0.05600009 1619445.55716697 86.84300000
0.06236649 1619445.45839213 86.75000000
0.05416129 1619445.39579281 86.85500000
-0.10352855 1619443.02518995 75.37700000
-0.13189515 1619442.92967379 75.38300000
-0.12253970 1619442.82347833 75.24000000
-0.38831286 1619438.37932007 52.46500000
-0.18234119 1619442.13421657 72.97200000
-0.41369040 1619438.27638330 52.46500000
-0.02941629 1619445.01714285 88.76700000
-0.22282961 1619441.98314808 73.19200000
-0.43661817 1619438.08171867 52.50000000
-0.08607777 1619444.48870130 86.85000000
-0.21408513 1619442.13005463 74.38800000
-0.08568946 1619444.40476770 86.86900000
-0.25279765 1619441.47408333 71.42600000
-0.09582153 1619444.67883036 88.75700000
-0.23103481 1619441.92054876 74.22300000
-0.09842227 1619444.60231738 88.77200000
-0.28791896 1619441.56127561 73.78800000
-0.48868915 1619437.95940508 55.02000000
-0.15469544 1619443.98994222 86.85100000
-0.29107364 1619441.48346143 73.83200000
-0.15692255 1619443.91250166 86.86100000
-0.33338619 1619441.08801276 73.20700000
-0.36529577 1619440.99861601 73.20200000
-0.48095864 1619438.52635326 60.47900000
-0.20155026 1619443.93764857 88.76000000
-0.33899065 1619441.10192642 74.16800000
-0.20676642 1619443.86762864 88.77500000
-0.37571341 1619440.77557011 72.97100000
-0.48793602 1619438.87823011 63.76300000
-0.25782343 1619443.32527342 86.85900000
-0.38805790 1619440.88918619 74.47200000
-0.51592898 1619438.78178638 63.80300000
-0.26005054 1619443.24783286 86.87100000
-0.44785939 1619440.19992443 71.44600000
-0.44448204 1619440.10857021 71.45300000
-0.28895641 1619443.06800947 86.83300000
-0.44188130 1619440.18508319 72.27500000
-0.50872307 1619439.18142130 67.22400000
-0.27239504 1619443.36144894 88.70500000
-0.29155715 1619442.99149649 86.86000000
-0.27761119 1619443.29142900 88.73600000
-0.29378425 1619442.91405594 86.86500000
-0.28021193 1619443.21491602 88.73900000
-0.30030162 1619442.84458994 86.90200000
-0.29716161 1619443.00541016 88.11900000
-0.52353202 1619439.46977125 70.55500000
-0.30872949 1619442.95115903 88.24800000
-0.48559611 1619440.29360975 75.09400000
-0.52690937 1619439.56112547 71.43800000
-0.31732300 1619442.97249332 88.78000000
-0.34960622 1619442.88402415 88.78500000
-0.35183333 1619442.80658359 88.80100000
-0.36539097 1619442.42271748 86.88400000
-0.39468514 1619442.32682769 86.85600000
-0.58119278 1619439.27836531 71.89100000
-0.35497333 1619442.64576338 88.76300000
-0.38632897 1619442.55766784 88.77800000
-0.39652394 1619442.16545353 86.85100000
-0.54769642 1619439.86431667 75.59200000
-0.42880716 1619442.07698436 86.86900000
-0.43140790 1619442.00047138 86.88500000
-0.59552704 1619439.06236640 72.54200000
-0.49705119 1619441.57729771 86.86100000
-0.45771302 1619441.89716098 88.73700000
-0.49666289 1619441.49336411 86.83300000
-0.48869503 1619441.80813786 88.74800000
-0.50225267 1619441.42427175 86.88300000
-0.49129577 1619441.73162488 88.75200000
-0.53154684 1619441.32838196 86.86200000
-0.49482409 1619441.65473827 88.76300000
-0.53377395 1619441.25094141 86.87000000
-0.52580610 1619441.56571515 88.76300000
-0.52840683 1619441.48920217 88.76600000
-0.53193515 1619441.41231556 88.76300000
-0.56030175 1619441.31679940 88.76300000
-0.56252885 1619441.23935885 88.76300000
-0.56605717 1619441.16247224 88.77300000
-0.59741281 1619441.07437670 88.77700000
-0.59418642 1619440.81478165 87.91300000
-0.62815747 1619440.73317915 87.95600000
-0.63729025 1619440.67020620 88.04300000
-0.64586909 1619440.60853446 88.14600000
-0.65108524 1619440.53851452 88.18300000
-0.66227949 1619440.48333583 88.30500000
-0.85331474 1619437.69502244 75.55100000
-0.66580781 1619440.40644921 88.34700000
-0.67700206 1619440.35127051 88.46700000
-0.68259185 1619440.28217815 88.49400000
-0.88782506 1619437.52911271 76.00000000
-0.89718051 1619437.63530817 78.09700000
-0.94225943 1619437.07811172 77.14000000
-0.98742474 1619436.94133052 77.36000000
-0.97921954 1619437.00392984 78.80100000
-0.98742474 1619436.94133052 78.90600000
-1.02568605 1619436.86770259 78.99900000
-1.03389126 1619436.80510327 79.11100000
-1.03649199 1619436.72859029 79.17000000
-1.04263573 1619436.65819672 79.23900000
-1.04822551 1619436.58910436 79.29500000
-1.05643072 1619436.52650505 79.41200000
-1.08871393 1619436.43803588 79.45400000
-1.09691914 1619436.37543656 79.53900000
-1.09354178 1619436.28408234 79.48700000
-1.09614252 1619436.20756936 79.57000000
-1.11386881 1619436.16593069 79.73800000
-1.13924636 1619436.06299391 79.73200000
-1.13885805 1619435.97906031 79.72200000
-1.14836446 1619435.91701494 80.19000000
-1.17374201 1619435.81407816 80.14800000
0.71833779 1619445.41967961 50.88800000
0.69203266 1619445.31636920 50.88800000
0.84727398 1619450.70136735 87.74900000
0.85042866 1619450.77918154 88.77400000
0.84428493 1619450.70878797 88.80700000
0.84168419 1619450.63227499 88.82800000
0.83646804 1619450.56225505 88.86000000
0.80418482 1619450.47378589 88.89100000
0.79859503 1619450.40469353 88.92800000
0.79636792 1619450.32725297 88.95600000
0.79376718 1619450.25073999 88.98300000
0.75886855 1619450.16876386 89.00100000
0.75626781 1619450.09225088 89.02800000
0.75067802 1619450.02315852 89.05300000
0.74752334 1619449.94534433 89.07100000
0.71616770 1619449.85724879 89.09700000
0.70796249 1619449.79464948 89.18900000
0.70443418 1619449.71776286 89.20600000
0.70298369 1619449.47245511 87.59800000
0.70183344 1619449.64124988 89.19100000
0.67085143 1619449.55222677 89.16500000
0.67031216 1619449.46791954 89.13800000
0.66771142 1619449.39140656 89.11100000
0.63934483 1619449.29589040 89.07800000
0.63619014 1619449.21807621 89.05400000
0.63657845 1619449.13414261 89.03700000
0.43898643 1619444.52339404 60.35900000
0.60522281 1619449.04604707 89.02700000
0.57335138 1619447.78695208 81.18000000
0.58567239 1619448.76002822 88.24800000
0.52151775 1619447.41246406 80.48400000
0.50809639 1619447.27984480 80.16300000
0.54020517 1619448.28676537 86.84700000
0.50471904 1619447.37119902 81.27700000
0.50196734 1619447.12644521 79.76400000
0.53760443 1619448.21025239 86.86900000
0.53905492 1619448.45556015 88.87200000
0.53407611 1619448.13336578 86.87500000
0.53682781 1619448.37811959 88.84700000
0.51467666 1619448.01558776 86.69700000
0.50547217 1619448.29002405 88.82700000
0.50493290 1619448.20571682 88.81700000
0.41915170 1619446.66293408 79.58000000
0.41655096 1619446.58642110 79.59500000
0.40559405 1619446.27906797 77.74900000
0.40481744 1619446.44693517 79.30200000
0.46284303 1619447.64109974 86.88300000
0.46821014 1619447.87936051 88.75700000
0.43148738 1619447.55300421 86.87800000
0.43722813 1619447.79033740 88.76200000
0.34893257 1619445.75062641 76.71200000
0.34018810 1619445.60371986 76.34400000
0.34815596 1619445.91849361 78.71700000
0.25219447 1619443.90049054 66.87500000
0.31680032 1619445.83039808 78.72200000
0.39160994 1619447.14883371 86.86300000
0.30506680 1619445.69091215 78.42500000
0.36025430 1619447.06073817 86.88600000
0.27793684 1619445.00618595 74.92600000
0.35986599 1619447.14467177 88.76100000
0.35726525 1619447.06815879 88.76300000
0.23285792 1619444.44898949 73.72200000
0.17344474 1619443.67579413 69.85500000
0.31777612 1619446.58005470 86.87600000
0.15926144 1619443.62803605 70.07700000
0.28642048 1619446.49195916 86.88900000
0.21467161 1619444.82869367 77.45900000
0.16263879 1619443.53668183 70.08300000
0.18929406 1619444.72575689 77.39600000
0.14782984 1619443.82503178 72.25000000
0.11316855 1619443.49088122 71.41000000
0.11056782 1619443.41436824 71.42500000
0.25114821 1619446.41091061 88.76300000
0.11394517 1619443.32301402 71.44800000
0.24593206 1619446.34089067 88.77300000
0.08503931 1619443.14319064 71.40400000
0.05966176 1619443.04025386 71.41800000
0.18368079 1619445.74335676 86.84100000
0.09759766 1619443.86409235 76.41600000
0.20622025 1619446.02195498 88.79100000
0.18052610 1619445.66554257 86.85800000
0.17692608 1619445.92606520 88.79500000
0.16972016 1619445.52643027 86.55600000
0.01917334 1619442.88918537 72.11100000
0.17010847 1619445.44249667 86.51000000
0.00222367 1619442.67967950 71.43200000
0.14603046 1619445.41662682 86.85800000
0.00261197 1619442.59574590 71.41600000
0.14380335 1619445.33918626 86.87300000
-0.02668220 1619442.49985611 71.42800000
-0.02330484 1619442.40850189 71.40200000
-0.05167144 1619442.31298574 71.41200000
-0.00698082 1619442.95411579 75.31600000
-0.03627499 1619442.85822600 75.33100000
-0.26638758 1619438.41118270 52.43700000
-0.29475417 1619438.31566654 52.47700000
-0.09476060 1619442.08540427 73.05500000
0.06321481 1619444.95311569 88.74900000
-0.10090433 1619442.01501070 73.15200000
0.05762503 1619444.88402333 88.76500000
0.02664302 1619444.79500021 88.78500000
-0.11547593 1619442.05118622 74.33000000
-0.16354390 1619441.50141038 71.44400000
-0.14384253 1619441.95567006 74.31900000
-0.36038279 1619437.80948684 52.49000000
0.00135186 1619444.27164817 86.85600000
-0.02794231 1619444.17575838 86.85000000
-0.16898273 1619441.60055886 73.79400000
-0.19827690 1619441.50466907 73.82200000
-0.24075508 1619441.02398559 73.16300000
-0.38218380 1619438.53271966 60.35900000
-0.25753912 1619440.89971453 73.01500000
-0.40511157 1619438.33805504 59.85300000
-0.24934859 1619441.04531987 74.21100000
-0.11619678 1619443.81139572 88.76600000
-0.38617213 1619438.87717589 63.60300000
-0.11673605 1619443.72708849 88.76500000
-0.29189848 1619440.90204564 74.44400000
-0.40312181 1619438.66767003 63.03300000
-0.12156390 1619443.57313495 88.76300000
-0.16779307 1619443.18473327 86.84900000
-0.15085807 1619443.47724516 88.76200000
-0.17002017 1619443.10729272 86.85900000
-0.17262091 1619443.03077974 86.85500000
-0.20191509 1619442.93488995 86.85700000
-0.38582199 1619439.96294054 71.95800000
-0.19539772 1619443.00435594 87.58100000
-0.20674293 1619442.78093641 86.87500000
-0.20152678 1619442.85095635 87.63200000
-0.22508020 1619442.99239975 88.75300000
-0.23564880 1619442.60111302 86.80400000
-0.22469189 1619442.90846615 88.77300000
-0.22729263 1619442.83195317 88.77100000
-0.41756594 1619439.95877861 75.49000000
-0.46578487 1619439.24076194 71.98600000
-0.29369787 1619442.49364067 88.76200000
-0.29891402 1619442.42362074 88.77700000
-0.34176584 1619441.94386484 86.85700000
-0.34137753 1619441.85993124 86.86900000
-0.37588786 1619441.69402151 86.87500000
-0.37848859 1619441.61750853 86.87500000
-0.36753169 1619441.92486166 88.76300000
-0.38071570 1619441.54006797 86.87400000
-0.37013243 1619441.84834868 88.76500000
-0.38331644 1619441.46355499 86.94400000
-0.39842732 1619441.41542328 87.09200000
-0.39267189 1619441.56975045 88.22200000
-0.40425445 1619441.59850535 88.75700000
-0.40648156 1619441.52106479 88.75900000
-0.58617159 1619438.95617094 76.65200000
-0.47862754 1619440.94541911 86.84900000
-0.44396625 1619441.27956967 88.78500000
-0.47525019 1619440.85406489 86.80600000
-0.47587584 1619441.19017292 88.77700000
-0.48046634 1619440.78404495 86.85800000
-0.51274956 1619440.69557578 86.85800000
-0.67188989 1619438.07966516 74.63200000
-0.65180021 1619438.44999124 77.19200000
-0.54349422 1619440.35437823 86.82300000
-0.54908401 1619440.28528587 86.85800000
-0.72878872 1619437.80339804 75.47200000
-0.58099360 1619440.19588913 86.87200000
-0.54932136 1619440.53746031 88.76300000
-0.58359434 1619440.11937615 86.86300000
-0.57861553 1619440.44157052 88.75800000
-0.58619508 1619440.04286317 86.88800000
-0.58121627 1619440.36505754 88.76700000
-0.61548925 1619439.94697338 86.88900000
-0.58344338 1619440.28761698 88.76500000
-0.61771636 1619439.86953282 86.87300000
-0.58398264 1619440.20330975 88.77500000
-0.61832733 1619440.12263483 88.77700000
-0.61793902 1619440.03870123 88.77300000
-0.62109371 1619439.96088704 88.77100000
-0.64946030 1619439.86537088 88.76400000
-0.65206104 1619439.78885790 88.77300000
-0.65558936 1619439.71197129 88.77700000
-0.68074424 1619439.43986611 87.94400000
-0.68932307 1619439.37819436 88.03800000
-0.69752827 1619439.31559505 88.11300000
-0.73541595 1619439.24103954 88.19500000
-0.74399479 1619439.17936780 88.29100000
-0.75219999 1619439.11676848 88.37800000
-0.76040519 1619439.05416916 88.46100000
-0.90376078 1619436.89956521 78.99000000
-0.77512776 1619438.92210385 88.62500000
-0.91456672 1619436.76045292 79.13800000
-0.94386089 1619436.66456313 79.14700000
-0.96081056 1619436.45505726 78.57100000
-0.97460555 1619436.32336558 78.78500000
-1.00389972 1619436.22747579 78.79000000
-0.99177790 1619436.28302812 79.72500000
-1.02406111 1619436.19455895 79.76300000
-1.03226632 1619436.13195963 79.87400000
-1.03486706 1619436.05544665 79.91600000
-1.04399984 1619435.99247370 80.00800000
-1.04921599 1619435.92245377 80.09500000
-1.05181673 1619435.84594079 80.12000000
-1.07758258 1619435.82693761 80.43000000
-1.06600003 1619435.79818271 80.67700000
-1.08111090 1619435.75005100 80.83300000
-1.10349940 1619435.63969360 80.72400000
-1.10311109 1619435.55576000 80.73600000
-1.10648845 1619435.64711422 81.50300000
-1.10908919 1619435.57060124 81.53900000
-1.13838336 1619435.47471145 81.52700000
0.86005082 1619445.48538664 50.57500000
0.83374570 1619445.38207624 50.60200000
0.83712306 1619445.29072202 50.59000000
0.81174551 1619445.18778524 50.60400000
0.81135720 1619445.27171884 52.47200000
0.78505208 1619445.16840843 52.48400000
0.73352037 1619445.13040208 54.89600000
0.74012412 1619444.77945281 52.51100000
0.89001299 1619449.84318417 86.28700000
0.88165683 1619449.61234402 85.80000000
0.86487279 1619449.48807296 85.54100000
0.86264568 1619449.41063240 85.57000000
0.69902472 1619444.88148633 56.38800000
0.87245234 1619449.88678031 89.09600000
0.82737342 1619449.32958385 85.58600000
0.84147033 1619449.79775720 89.12500000
0.82514631 1619449.25214330 85.60500000
0.83358886 1619449.06256818 84.34700000
0.83794201 1619449.72087058 89.13800000
0.82553462 1619449.16820970 85.59700000
0.83534127 1619449.64435760 89.15200000
0.79325140 1619449.07974053 85.59300000
0.80137022 1619449.56275511 89.15000000
0.81357843 1619449.19789218 86.78700000
0.79065066 1619449.00322755 85.58300000
0.80643541 1619449.46453421 89.00200000
0.78404691 1619449.35417682 88.86100000
0.79041331 1619449.25540198 88.72200000
0.76709724 1619449.14467095 88.55700000
0.74433511 1619449.03524113 88.41600000
0.74977393 1619448.93609266 88.21700000
0.72439639 1619448.83315588 88.10800000
0.73260159 1619448.89575520 88.98000000
0.70185692 1619448.55455766 86.94200000
0.70161958 1619448.80673209 88.96700000
0.69925619 1619448.47804467 86.91900000
0.69809126 1619448.72984547 88.95800000
0.69847957 1619448.64591188 88.93000000
0.67011298 1619448.55039572 88.90500000
0.66695829 1619448.47258153 88.88800000
0.66435755 1619448.39606855 88.86400000
0.63599096 1619448.30055239 88.84500000
0.63246264 1619448.22366578 88.82200000
0.63322458 1619448.13880460 88.78000000
0.54706975 1619446.59694944 79.62000000
0.60485799 1619448.04328844 88.76300000
0.54247924 1619446.19082147 77.68300000
0.60132967 1619447.96640183 88.77300000
0.53572453 1619446.37352991 79.27800000
0.59872893 1619447.88988885 88.77700000
0.55977906 1619447.48609199 86.88600000
0.50521722 1619445.78015793 76.79300000
0.41107985 1619444.00653504 66.35000000
0.55625075 1619447.40920538 86.90200000
0.47369594 1619445.60682759 76.29000000
0.41146816 1619443.92260144 66.34700000
0.47269665 1619445.94386319 78.77900000
0.52528342 1619447.23717624 86.86300000
0.47607401 1619445.85250897 78.74700000
0.37918494 1619443.83413227 66.97300000
0.52212873 1619447.15936205 86.88800000
0.43896294 1619445.61008627 78.35000000
0.41666083 1619445.07931361 75.29900000
0.41482203 1619444.91793945 74.81900000
0.35739861 1619444.47435907 73.80700000
0.48555693 1619447.00124657 88.76500000
0.34958171 1619444.32782616 73.48700000
0.45327371 1619446.91277741 88.77700000
0.36198911 1619444.88048704 77.64200000
0.28456407 1619443.56854445 70.19400000
0.41640000 1619446.41818027 86.87500000
0.28196333 1619443.49203147 70.27700000
0.41379926 1619446.34166729 86.89700000
0.41356191 1619446.59384172 88.77500000
0.41096117 1619446.51732874 88.77600000
0.24407565 1619443.41747596 71.42600000
0.21516979 1619443.23765258 71.43000000
0.21555810 1619443.15371897 71.44400000
0.34555522 1619445.84198063 86.85500000
0.34295448 1619445.76546765 86.85900000
0.22512741 1619443.88204131 76.51300000
0.23747190 1619443.76842523 76.30500000
0.17844703 1619442.91129627 72.10500000
0.30521776 1619445.85915298 88.78000000
0.14746502 1619442.82227315 72.15200000
0.30261702 1619445.78264000 88.79500000
0.27172140 1619445.27320162 86.87500000
0.23943818 1619445.18473245 86.90200000
0.12392627 1619442.88071053 75.34100000
0.05331884 1619442.05233647 71.41600000
0.05277957 1619441.96802924 71.42500000
0.05316788 1619441.88409564 71.43900000
-0.16423538 1619438.32619488 52.49900000
0.19688829 1619445.04145821 88.76300000
0.02517492 1619441.78765190 71.44100000
0.19074455 1619444.97106465 88.77500000
0.03260351 1619442.01811842 73.10500000
0.02463565 1619441.70334467 71.42500000
-0.00373094 1619441.60782851 71.44300000
-0.18900195 1619437.97015609 52.16600000
0.01803190 1619442.05429394 74.28900000
-0.00035359 1619441.51647429 71.43100000
-0.21568071 1619437.86777326 52.22000000
0.15662254 1619444.72122132 88.77700000
0.13447138 1619444.35868949 86.86000000
0.01543116 1619441.97778096 74.33600000
0.15402180 1619444.64470834 88.79100000
0.13187064 1619444.28217651 86.85600000
-0.02925945 1619441.33665091 71.41600000
0.10257647 1619444.18628672 86.83100000
0.10034937 1619444.10884617 86.86300000
-0.03900321 1619441.52677996 73.81900000
-0.23570582 1619438.08610327 55.96500000
-0.06736980 1619441.43126381 73.83100000
-0.24606055 1619438.52933434 60.27000000
-0.10685894 1619440.94315971 73.13700000
-0.24882693 1619438.36758655 59.94100000
-0.12924744 1619440.83280231 73.08200000
-0.12143054 1619440.97933523 74.26000000
-0.12963574 1619440.91673591 74.38800000
-0.24928694 1619438.78892939 63.54100000
0.01118200 1619443.66110385 88.76100000
-0.27520376 1619438.60168538 63.13200000
0.00895489 1619443.58366329 88.77300000
-0.26448420 1619439.16121295 66.93100000
-0.04210213 1619443.04130808 86.86200000
-0.21182573 1619440.11711675 72.16600000
-0.04470287 1619442.96479509 86.88600000
-0.05981374 1619442.91666338 87.08300000
-0.06204085 1619442.83922283 87.10000000
-0.07622414 1619442.79146475 87.26600000
-0.30259455 1619439.25582585 69.74900000
-0.09716215 1619442.92641511 88.77500000
-0.23835353 1619440.18297475 75.17800000
-0.09976289 1619442.84990213 88.78900000
-0.10199000 1619442.77246157 88.80000000
-0.28405810 1619439.96188633 75.44500000
-0.33526608 1619439.25129028 71.96700000
-0.33749319 1619439.17384972 72.03600000
-0.36064363 1619439.14835350 72.35100000
-0.36025532 1619439.06441990 72.35600000
-0.16800693 1619442.35021548 88.76400000
-0.21308585 1619441.79301902 86.87100000
-0.21568659 1619441.71650604 86.88900000
-0.20472969 1619442.02385917 88.76100000
-0.24796981 1619441.62803687 86.89000000
-0.20825800 1619441.94697256 88.76600000
-0.25019691 1619441.55059631 86.88200000
-0.25279765 1619441.47408333 86.90200000
-0.39838035 1619439.24203883 76.24900000
-0.25617501 1619441.56543755 87.76300000
-0.26752022 1619441.34201802 87.06900000
-0.27373566 1619441.60903369 88.77700000
-0.27596277 1619441.53159314 88.78900000
-0.31023575 1619441.11350898 86.80500000
-0.28248013 1619441.46212714 88.80300000
-0.30984744 1619441.02957538 86.77900000
-0.31383577 1619441.37403161 88.80900000
-0.29926417 1619441.33785608 88.98600000
-0.34496875 1619441.11676766 88.77700000
-0.35055853 1619441.04767530 88.80900000
-0.55256536 1619438.03501481 74.80300000
-0.38406957 1619440.54472996 86.87500000
-0.52742516 1619438.39012601 77.24000000
-0.59266547 1619437.80001272 75.39200000
-0.42079233 1619440.21837366 86.88800000
-0.45307555 1619440.12990449 86.90200000
-0.41635279 1619440.45626079 88.74000000
-0.45567629 1619440.05339151 86.89600000
-0.45069748 1619440.37558588 88.76300000
-0.45528798 1619439.96945791 86.87300000
-0.45047481 1619440.20641747 88.35900000
-0.45905364 1619440.14474573 88.44000000
-0.64917599 1619437.43981200 76.18800000
-0.48481950 1619440.12574255 88.76700000
-0.48742024 1619440.04922957 88.77500000
-0.49057492 1619439.97141538 88.78000000
-0.52093128 1619439.54628424 86.86200000
-0.49317566 1619439.89490240 88.78900000
-0.52353202 1619439.46977125 86.87800000
-0.52453130 1619439.80680686 88.79200000
-0.55581524 1619439.38130209 86.88400000
-0.68782561 1619437.45011767 78.25000000
-0.55542693 1619439.29736849 86.88800000
-0.55765404 1619439.21992793 86.89700000
-0.55566427 1619439.54954292 88.76200000
-0.58694821 1619439.12403814 86.88800000
-0.55919259 1619439.47265630 88.76600000
-0.58954895 1619439.04752516 86.89800000
-0.56141970 1619439.39521575 88.77400000
-0.59214968 1619438.97101218 86.88400000
-0.59277534 1619439.30712021 88.77700000
-0.62107022 1619438.87419481 86.89800000
-0.59331461 1619439.22281298 88.77700000
-0.62367096 1619438.79768183 86.90300000
-0.59591535 1619439.14630000 88.77200000
-0.62328266 1619438.71374823 86.85500000
-0.62689736 1619439.05727688 88.77600000
-0.62743663 1619438.97296965 88.77200000
-0.63302641 1619438.90387729 88.78800000
-0.66139301 1619438.80836113 88.77700000
-0.66155865 1619438.72312633 88.75900000
-0.66714843 1619438.65403396 88.77700000
-0.69551503 1619438.55851781 88.76700000
-0.70348288 1619438.24374406 87.76300000
-0.71560471 1619438.18819173 87.84700000
-0.72082086 1619438.11817179 87.92800000
-0.88158614 1619436.17540481 79.64600000
-0.75815460 1619438.04491749 88.01300000
-0.74059395 1619438.00132135 88.11100000
-0.74972673 1619437.93834840 88.22200000
-0.78407141 1619437.85767348 88.26100000
-0.94760307 1619435.75315872 80.08200000
-0.95580827 1619435.69055940 80.18800000
-0.94760307 1619435.75315872 80.80100000
-0.96477541 1619435.71282126 81.00100000
-0.95879732 1619435.69798002 81.28600000
-0.97596966 1619435.65764256 81.50700000
-0.96700252 1619435.63538070 81.73600000
-0.98417486 1619435.59504324 81.94500000
-1.00227478 1619435.55433215 82.17500000
-1.00749094 1619435.48431221 82.21700000
-1.00448721 1619435.39388557 82.19000000
-1.03639680 1619435.30448883 82.19600000
-1.03600849 1619435.22055523 82.19400000
-1.06736413 1619435.13245969 82.20700000
-1.06790340 1619435.04815246 82.21200000
-1.09289264 1619434.86128208 82.15400000
0.95567098 1619445.41393886 50.59700000
0.93328248 1619445.30358146 50.58700000
0.93665983 1619445.21222724 50.59700000
0.88083787 1619445.18219545 52.47900000
0.83889896 1619444.78581921 52.47200000
0.82876689 1619445.05988187 54.95100000
0.81597119 1619444.59115458 52.48400000
0.97482720 1619449.63262409 85.86200000
0.96701031 1619449.48609117 85.44700000
0.95750390 1619449.42404579 85.55800000
0.79518414 1619444.89434577 56.38800000
0.95527679 1619449.34660524 85.55700000
0.76290092 1619444.80587660 56.52000000
0.92392115 1619449.25850970 85.58300000
0.93111239 1619449.74115065 89.15400000
0.92039283 1619449.18162309 85.58700000
0.90997520 1619448.95857719 84.16500000
0.93150070 1619449.65721705 89.16600000
0.92078114 1619449.09768949 85.59100000
0.90943593 1619448.87426996 84.15200000
0.92591091 1619449.58812469 89.18200000
0.88681008 1619449.01608699 85.59200000
0.88743574 1619448.67997896 83.45800000
0.90259483 1619449.47739366 89.02400000
0.88627081 1619448.93177976 85.60500000
0.88689647 1619448.59567173 83.44200000
0.90597219 1619449.38603944 88.90200000
0.88367007 1619448.85526678 85.58300000
0.88265611 1619449.27530841 88.76000000
0.85989398 1619449.16587859 88.59800000
0.86626038 1619449.06710375 88.46100000
0.84294431 1619448.95637272 88.30300000
0.84931071 1619448.85759789 88.15200000
0.82300559 1619448.75428748 88.02300000
0.82914932 1619448.82468105 88.93900000
0.79686610 1619448.73621188 88.94400000
0.79463899 1619448.65877132 88.93200000
0.78667114 1619448.34399757 87.02300000
0.79502730 1619448.57483772 88.90200000
0.77248784 1619448.29623949 87.21600000
0.76274408 1619448.48636855 88.86500000
0.76313239 1619448.40243495 88.86100000
0.76090528 1619448.32499439 88.85800000
0.72862206 1619448.23652522 88.82700000
0.72901037 1619448.15259162 88.79000000
0.72939868 1619448.06865802 88.77200000
0.69711546 1619447.98018885 88.77300000
0.63449937 1619446.37989631 79.26600000
0.69488835 1619447.90274830 88.76600000
0.69228761 1619447.82623532 88.77700000
0.65762633 1619447.49208476 86.82900000
0.59838759 1619445.80043800 76.81500000
0.66000440 1619447.73776615 88.77800000
0.65502559 1619447.41557178 86.87800000
0.57545982 1619445.60577337 76.20200000
0.56987004 1619445.53668101 76.28900000
0.65019774 1619447.26161824 86.87500000
0.56924438 1619445.87278904 78.81800000
0.47497073 1619443.84791929 67.00000000
0.61791452 1619447.17314907 86.88500000
0.47573267 1619443.76305812 67.00000000
0.53773778 1619445.61645267 78.33300000
0.50983120 1619445.09959367 75.31900000
0.53551067 1619445.53901211 78.35100000
0.51060782 1619444.93172647 74.86200000
0.45654708 1619444.47979790 73.80400000
0.58041515 1619447.01465997 88.77300000
0.44182451 1619444.34773259 73.54100000
0.57781441 1619446.93814698 88.78900000
0.45814853 1619444.89334649 77.66700000
0.38632796 1619443.56749023 70.12300000
0.37981059 1619443.49802424 70.26300000
0.50995868 1619446.35452673 86.88800000
0.42103747 1619444.65092378 77.30000000
0.51233675 1619446.60020812 88.75800000
0.50918206 1619446.52239393 88.76300000
0.33986144 1619443.43126299 71.43000000
0.34323880 1619443.33990876 71.41600000
0.31171752 1619443.16657842 71.44500000
0.44134101 1619445.85576766 86.86100000
0.31210583 1619443.08264482 71.44300000
0.43911390 1619445.77832710 86.87400000
0.35004173 1619443.90648331 76.53000000
0.33624674 1619443.77479164 76.28800000
0.27722187 1619442.91766267 72.09600000
0.43274750 1619445.87710194 88.77500000
0.27200571 1619442.84764273 72.16300000
0.39747524 1619445.79605339 88.78800000
0.37049624 1619445.27956802 86.86200000
0.36734155 1619445.20175383 86.87500000
0.21878449 1619442.89412392 75.35800000
0.14893900 1619441.98088868 71.43000000
0.14932731 1619441.89695508 71.44100000
-0.03670564 1619438.34414384 52.48600000
0.29212013 1619445.05394403 88.76400000
0.12003313 1619441.80106529 71.44300000
0.28951939 1619444.97743105 88.77400000
0.13137835 1619442.02448482 73.11100000
0.09504390 1619441.61419492 71.41800000
0.09450463 1619441.52988769 71.43100000
-0.11952129 1619437.88063271 52.22200000
0.25539738 1619444.72758772 88.78800000
0.23324622 1619444.36505589 86.86100000
0.11420600 1619441.98414736 74.33300000
0.24980759 1619444.65849536 88.79500000
0.23064548 1619444.28854291 86.86100000
0.06897612 1619441.25871008 71.44400000
0.19613516 1619444.12263319 86.88200000
0.19353442 1619444.04612021 86.89800000
0.06014526 1619441.53221879 73.80500000
0.03177867 1619441.43670263 73.83100000
-0.14392303 1619438.52735255 60.22900000
-0.00808410 1619440.94952611 73.13800000
-0.15304114 1619438.38137358 59.97600000
-0.03140018 1619440.83879509 73.08000000
-0.17542963 1619438.27101618 59.92800000
-0.02265570 1619440.98570164 74.26200000
-0.03086091 1619440.92310232 74.38800000
-0.15106605 1619438.79399459 63.54200000
0.11033047 1619443.66654267 88.75700000
-0.17904434 1619438.61454483 63.13200000
0.10772973 1619443.59002969 88.77900000
0.05667271 1619443.04767448 86.86500000
-0.11305089 1619440.12348315 72.18000000
-0.16624863 1619439.08327212 66.94400000
0.05351803 1619442.96986029 86.88800000
0.03933473 1619442.92210221 87.06600000
0.03673399 1619442.84558923 87.07100000
0.02852879 1619442.78298991 87.17400000
-0.18066928 1619439.28768847 69.81800000
-0.17622974 1619439.52557561 71.43400000
0.00161269 1619442.93278151 88.76700000
0.00200100 1619442.84884791 88.77700000
-0.17148827 1619440.09994441 75.23000000
-0.00414274 1619442.77845434 88.78600000
-0.18528326 1619439.96825273 75.44400000
-0.24170740 1619439.18763674 72.05000000
-0.26203442 1619439.06948510 72.37500000
-0.06923209 1619442.35658188 88.77200000
-0.07276040 1619442.27969527 88.78900000
-0.11783933 1619441.72249881 86.87300000
-0.10688242 1619442.02985194 88.75200000
-0.12006643 1619441.64505825 86.88200000
-0.10948316 1619441.95333896 88.76200000
-0.15142208 1619441.55696271 86.87500000
-0.14897230 1619441.46523486 86.85000000
-0.29661646 1619439.24098461 76.23600000
-0.15441112 1619441.56438333 87.70800000
-0.18554409 1619441.30711939 86.90200000
-0.18892145 1619441.39847361 87.75200000
-0.18110455 1619441.54500653 88.79100000
-0.18370529 1619441.46849355 88.82900000
-0.18593240 1619441.39105299 88.81500000
-0.20011570 1619441.34329491 89.01300000
-0.24320486 1619441.11571344 88.75000000
-0.24934859 1619441.04531987 88.77400000
-0.42204657 1619438.04554315 74.80200000
-0.28529473 1619440.55109637 86.87600000
-0.45302858 1619437.95652003 74.83000000
-0.28882305 1619440.47420975 86.87800000
-0.42566127 1619438.38907180 77.23500000
-0.42527296 1619438.30513820 77.25200000
-0.46476210 1619437.81703410 75.39900000
-0.32294507 1619440.22436643 86.88600000
-0.32554581 1619440.14785345 86.89200000
-0.31757795 1619440.46262720 88.75000000
-0.35391240 1619440.05233729 86.87800000
-0.32017869 1619440.38611422 88.76600000
-0.35445167 1619439.96803006 86.87800000
-0.34310646 1619440.19144959 88.22500000
-0.35430071 1619440.13627089 88.36200000
-0.54833968 1619437.43838415 76.18000000
-0.35728976 1619440.14369151 88.79200000
-0.38621030 1619440.04687414 88.75900000
-0.39180008 1619439.97778178 88.78800000
-0.41916739 1619439.54523002 86.86400000
-0.42269571 1619439.46834341 86.86900000
-0.42369499 1619439.80537901 88.79100000
-0.58307267 1619437.44164283 78.19100000
-0.45627846 1619439.30280731 86.87600000
-0.45681773 1619439.21850008 86.87500000
-0.48817337 1619439.13040454 86.88800000
-0.49077411 1619439.05389156 86.89700000
-0.45965581 1619439.39416153 88.74400000
-0.49131338 1619438.96958433 86.88600000
-0.64793935 1619436.85060196 77.51300000
-0.49193903 1619439.30569236 88.76300000
-0.52229538 1619438.88056121 86.89700000
-0.49453977 1619439.22917938 88.76600000
-0.52489612 1619438.80404823 86.89700000
-0.49676688 1619439.15173882 88.77500000
-0.52543539 1619438.71974100 86.88900000
-0.52606105 1619439.05584904 88.77700000
-0.55380199 1619438.62422485 86.87500000
-0.52866179 1619438.97933605 88.77900000
-0.55602910 1619438.54678429 86.86100000
-0.53126253 1619438.90282307 88.78500000
-0.56317211 1619438.81342633 88.79000000
-0.56278381 1619438.72949273 88.78800000
-0.56538455 1619438.65297975 88.78500000
-0.59766776 1619438.56451058 88.78900000
-0.59989487 1619438.48707002 88.79300000
-0.61384082 1619438.18713751 87.84900000
-0.61905698 1619438.11711757 87.89000000
-0.62763581 1619438.05544583 88.00000000
-0.63975764 1619437.99989350 88.12100000
-0.67372869 1619437.91829101 88.15600000
-0.65915709 1619437.88211549 88.30200000
-0.69144031 1619437.79364632 88.33700000
-0.70263456 1619437.73846762 88.44000000
-0.84583918 1619435.75210450 80.07800000
-0.85404438 1619435.68950518 80.17800000
-0.86301152 1619435.71176704 80.97200000
-0.85404438 1619435.68950518 81.23100000
-0.87121673 1619435.64916772 81.47000000
-0.86262321 1619435.62783344 81.69800000
-0.88034951 1619435.58619477 81.92400000
-0.90349994 1619435.56069855 82.18000000
-0.90871610 1619435.49067862 82.24800000
-0.90832779 1619435.40674502 82.23600000
-0.93463291 1619435.30343461 82.18000000
-0.93424461 1619435.21950101 82.19200000
-0.96652782 1619435.13103184 82.19600000
-0.96613952 1619435.04709824 82.19800000
-0.96537758 1619434.96223706 82.20700000
-0.99766080 1619434.87376789 82.21600000
-1.02862813 1619434.70173875 82.59700000
