2.25446054 4006615.89702877 132.81100000
2.23216934 4006615.83091445 132.58200000
2.21568909 4006615.73331629 133.19900000
2.19559206 4006615.65944404 133.20100000
2.17564574 4006615.58458321 133.17700000
2.12391416 4006615.50588858 133.13600000
2.10381714 4006615.43201633 133.10200000
2.08492570 4006615.35023544 133.05900000
2.06399080 4006615.27522391 133.02000000
2.01324780 4006615.19667999 132.98800000
1.75073157 4006615.25984031 127.12100000
1.99435637 4006615.11489910 132.96200000
1.69794510 4006615.18806574 126.25200000
1.97327076 4006615.04087615 132.87100000
1.57552420 4006614.95596636 125.41300000
1.55783836 4006614.86627684 125.42600000
1.67564249 4006614.50490281 130.73100000
1.72129207 4006614.41778728 132.66600000
1.22007007 4006614.38791235 122.25900000
1.19898447 4006614.31388940 122.23500000
1.09771549 4006614.14874221 121.61000000
1.59089639 4006614.02565851 132.51300000
1.08002965 4006614.05905268 121.64900000
1.54135899 4006613.93920595 132.49800000
1.47546169 4006613.95343781 130.77200000
1.45551536 4006613.87857698 130.75100000
1.40619498 4006613.78406508 130.75000000
1.25654015 4006613.31920334 130.73500000
1.20601417 4006613.23260008 130.73500000
1.24841468 4006613.16016254 132.02600000
1.22846835 4006613.08530171 132.10000000
0.92716927 4006612.36770094 130.76800000
0.87664329 4006612.28109768 130.76100000
1.59798101 4006612.32024982 145.34500000
1.57682909 4006612.25329763 145.34100000
1.49445154 4006612.16993133 144.27400000
0.78607395 4006612.04576133 130.76100000
1.47435452 4006612.09605907 144.27600000
1.48384857 4006612.03377855 145.28100000
1.46375154 4006611.95990630 145.35200000
1.44161104 4006611.89280341 145.34800000
1.42151401 4006611.81893116 145.34800000
1.40141699 4006611.74505891 145.34300000
1.26844715 4006611.58216010 144.27600000
1.30738157 4006611.53245990 145.36700000
1.28728455 4006611.45858764 145.35600000
1.26619894 4006611.38456469 145.35000000
1.24504702 4006611.31761250 145.34800000
1.19430402 4006611.23906857 145.34500000
0.98740807 4006610.72501890 144.28900000
0.99675142 4006610.66372696 145.39500000
0.93540545 4006610.44903027 145.37300000
0.85302790 4006610.36566397 144.68600000
3.84418014 4006622.67500498 111.32900000
3.82996038 4006622.56257812 111.85900000
3.80167156 4006622.33673583 112.87000000
3.78887441 4006622.20834100 113.57100000
3.72632285 4006622.00155294 114.24600000
3.74757143 4006621.86216320 115.24900000
3.62872468 4006622.01803318 112.01700000
3.69704545 4006621.77555994 115.26300000
3.71829404 4006621.63617021 116.33000000
3.56171846 4006621.83383176 112.07300000
3.66875663 4006621.54971764 116.32900000
3.64887662 4006621.46778606 116.17900000
3.52981286 4006621.63171537 112.60500000
3.59225636 4006621.42779674 115.27300000
3.66178272 4006621.17741486 118.85900000
3.64289129 4006621.09563397 118.84100000
3.59236530 4006621.00903071 118.76300000
3.59818854 4006620.76512275 120.40200000
3.43694128 4006620.99343027 115.23400000
3.54518505 4006620.70140752 119.99900000
3.56643364 4006620.56201779 121.15200000
3.29568298 4006620.88490335 113.60700000
3.55001971 4006620.45734887 121.82300000
3.51931971 4006620.24732385 122.66500000
3.50751113 4006620.11907971 123.76700000
3.48763112 4006620.03714813 123.76300000
3.47115088 4006619.93954996 124.12300000
3.45346504 4006619.84986044 124.46800000
3.43577920 4006619.76017091 124.59100000
3.41710478 4006619.67033068 124.70800000
3.39941894 4006619.58064116 125.01500000
3.34988154 4006619.49418860 125.01500000
3.33000152 4006619.41225701 125.01500000
3.31111009 4006619.33047612 125.01700000
3.20632100 4006618.98271291 125.54200000
3.15474012 4006618.90302971 125.46800000
3.06291116 4006618.47024865 126.21200000
3.01216816 4006618.39170473 126.23600000
2.99228815 4006618.30977314 126.23200000
2.97339672 4006618.22799225 126.23600000
2.92385932 4006618.14153969 126.23000000
2.90292441 4006618.06652816 126.22400000
2.90166478 4006617.86908345 127.42400000
2.88639013 4006617.76357665 128.28500000
2.86749870 4006617.68179576 128.22500000
2.84641309 4006617.60777281 128.15800000
2.79567009 4006617.52922888 127.93000000
2.77572377 4006617.45436805 127.87100000
2.72519779 4006617.36776479 127.90200000
2.70630635 4006617.28598390 127.98600000
2.68741492 4006617.20420301 128.00700000
2.66753491 4006617.12227142 128.08900000
2.64864347 4006617.04049053 128.15400000
2.52748220 4006617.00583586 126.27700000
2.68044100 4006616.83190022 130.41900000
2.50859077 4006616.92405497 126.28100000
2.62984871 4006616.75236772 130.39500000
2.45806479 4006616.83745171 126.25000000
2.60876310 4006616.67834477 130.31700000
2.58987167 4006616.59656388 130.24600000
2.53912867 4006616.51801995 130.16400000
2.51819377 4006616.44300842 130.03300000
2.53461998 4006616.33525324 131.37800000
2.51452295 4006616.26138099 131.30400000
2.46393065 4006616.18184848 131.23100000
2.44284505 4006616.10782553 131.05700000
2.39210205 4006616.02928160 130.85800000
2.37321062 4006615.94750072 130.84300000
2.35227571 4006615.87248919 130.81500000
2.36629074 4006615.78055128 131.88400000
2.31569844 4006615.70101877 131.64500000
2.26276127 4006615.63023278 130.91900000
2.24281494 4006615.55537195 130.67900000
2.19207195 4006615.47682802 130.71200000
2.17219194 4006615.39489644 130.70300000
2.10622832 4006615.41619906 129.00300000
2.08613130 4006615.34232680 128.98500000
1.98732754 4006615.36671569 126.95400000
1.96843611 4006615.28493480 127.06700000
1.91791012 4006615.19833153 127.08000000
2.16032933 4006615.06129896 132.86500000
1.86611223 4006615.12670767 126.20800000
2.14143790 4006614.97951807 132.86700000
2.08985702 4006614.89983486 132.87600000
2.06976000 4006614.82596261 132.85600000
2.05086856 4006614.74418172 132.83200000
1.99913699 4006614.66548710 132.78500000
1.97919066 4006614.59062627 132.74400000
1.95909363 4006614.51675401 132.70700000
1.90856765 4006614.43015075 132.66400000
1.84380963 4006614.44354473 130.71800000
1.88847063 4006614.35627850 132.63000000
1.79207806 4006614.36485011 130.71000000
1.43663533 4006614.41384471 122.40400000
1.86852430 4006614.28141767 132.61700000
1.38604304 4006614.33431221 122.31700000
1.84864429 4006614.19948608 132.60200000
1.79790129 4006614.12094215 132.59100000
1.26588263 4006614.08738413 121.50100000
1.66372585 4006613.96595198 130.74600000
1.24720821 4006613.99754390 121.46100000
1.64264025 4006613.89192903 130.75100000
0.86231371 4006613.41690957 117.63400000
0.81299332 4006613.32239767 117.63200000
0.79410189 4006613.24061679 117.49600000
1.37319273 4006613.17109130 130.73300000
1.39564691 4006613.02379293 132.07000000
1.37675548 4006612.94201204 132.07200000
1.13417417 4006612.46298458 130.75500000
1.11429416 4006612.38105300 130.75500000
1.06370186 4006612.30152049 130.75100000
0.95424109 4006611.98440326 130.75300000
0.93315548 4006611.91038030 130.75000000
1.48516311 4006611.60710389 144.41000000
1.46386049 4006611.54114027 144.49000000
1.47440943 4006611.47193970 145.36000000
1.45325751 4006611.40498750 145.36000000
1.43316048 4006611.33111525 145.36500000
1.41101998 4006611.26401236 145.35800000
1.36027699 4006611.18546843 145.36000000
1.10263804 4006610.59287483 144.31300000
1.14262736 4006610.53625457 145.38600000
1.12147544 4006610.46930238 145.37600000
1.10137841 4006610.39543013 145.38400000
1.02020646 4006610.30415519 144.54400000
3.98176762 4006622.60190447 111.42600000
3.96769856 4006622.48848903 111.83100000
3.94408142 4006622.23200077 113.48200000
3.92661260 4006622.13425191 113.56900000
3.84994934 4006622.22574368 111.65300000
3.91239284 4006622.02182505 114.09700000
3.86406103 4006621.92746385 114.10500000
3.88530961 4006621.78807411 115.25200000
3.83478363 4006621.70147085 115.25000000
3.74877703 4006621.85425457 112.12300000
3.85588152 4006621.56306970 116.37400000
3.84060687 4006621.45756290 116.88200000
3.66634545 4006621.56553492 112.52700000
3.72999454 4006621.35370765 115.25800000
3.79952090 4006621.10332577 118.86400000
3.78183506 4006621.01363624 118.85000000
3.75014648 4006620.80346052 119.87600000
3.73592672 4006620.69103366 120.44400000
3.72170696 4006620.57860680 121.19300000
3.70763790 4006620.46519137 121.77700000
3.46406714 4006620.81548593 113.56400000
3.68775789 4006620.38325978 121.79100000
3.65585229 4006620.18114339 122.66400000
3.67468969 4006620.05757094 123.76300000
3.62536930 4006619.96305904 123.86100000
3.60888906 4006619.86546087 124.19400000
3.58999763 4006619.78367998 124.27700000
3.57231179 4006619.69399046 124.41600000
3.48761972 4006619.42009951 125.01300000
3.46653411 4006619.34607655 125.01300000
3.44884827 4006619.25638703 125.01100000
3.39810528 4006619.17784310 125.01300000
3.34285359 4006618.91653246 125.46100000
3.29127271 4006618.83684926 125.37500000
3.27117568 4006618.76297700 125.25000000
3.14990635 4006618.31761564 126.19400000
3.13002633 4006618.23568405 126.21600000
3.11113490 4006618.15390316 126.22200000
3.06159750 4006618.06745060 126.23300000
3.04171749 4006617.98551901 126.23100000
3.02177116 4006617.91065818 126.23000000
3.00287973 4006617.82887729 126.22300000
3.00403128 4006617.61561531 128.19500000
2.98415127 4006617.53368372 128.11900000
2.93340828 4006617.45513979 128.05400000
2.91451684 4006617.37335890 127.96100000
2.89358194 4006617.29834737 127.93900000
2.84404453 4006617.21189481 127.97200000
2.82515310 4006617.13011392 128.08700000
2.80527309 4006617.04818233 128.12800000
2.78638166 4006616.96640144 128.16000000
2.68516671 4006617.00660760 126.22200000
2.73684425 4006616.87994888 128.24400000
2.66522039 4006616.93174677 126.25300000
2.71590935 4006616.80493735 128.31100000
2.64632895 4006616.84996588 126.24800000
2.76743619 4006616.67926721 130.24400000
2.69701791 4006616.72315646 128.38200000
2.74650128 4006616.60425568 130.25500000
2.72760985 4006616.52247479 130.23300000
2.67686685 4006616.44393086 130.13400000
2.65578125 4006616.36990791 130.05700000
2.63704051 4006616.28713844 130.11900000
2.61694349 4006616.21326619 130.21000000
2.60151814 4006616.10874797 131.19000000
2.58058323 4006616.03373644 131.16400000
2.56048620 4006615.95986419 131.05700000
2.51094880 4006615.87341163 130.91200000
2.48986320 4006615.79938868 130.83900000
2.47217736 4006615.70969915 131.45500000
2.45223103 4006615.63483832 131.26400000
2.39929386 4006615.56405233 130.74800000
2.38040243 4006615.48227144 130.72900000
2.32981013 4006615.40273893 130.72700000
2.26270724 4006615.42487943 129.05900000
2.16164299 4006615.46409701 126.27100000
2.24396650 4006615.34210997 129.02900000
2.22386948 4006615.26823771 129.00700000
2.12627131 4006615.28471796 126.94100000
2.10737988 4006615.20293707 127.19400000
2.02379674 4006615.12747941 126.23800000
1.90137584 4006614.89538003 125.25100000
2.20749818 4006614.75187352 132.76300000
1.88149583 4006614.81344844 125.22200000
2.18860675 4006614.67009263 132.75700000
2.13687517 4006614.59139801 132.75700000
2.11677814 4006614.51752576 132.73500000
2.09803741 4006614.43475629 132.71400000
2.07695180 4006614.36073334 132.66200000
2.02620881 4006614.28218941 132.64100000
2.00731738 4006614.20040852 132.62300000
1.98638247 4006614.12539699 132.58500000
1.93563947 4006614.04685306 132.48500000
1.42371783 4006614.08716729 121.44400000
1.85100144 4006613.97831546 130.74600000
1.40482640 4006614.00538640 121.45500000
1.80146404 4006613.89186290 130.74200000
1.01999822 4006613.41768132 117.65600000
1.00110678 4006613.33590043 117.65000000
0.95178639 4006613.24138853 117.57200000
1.56145689 4006613.18360548 130.73500000
0.93289496 4006613.15960764 117.47500000
1.51093091 4006613.09700221 130.73800000
0.76949616 4006612.98397782 115.29500000
1.53323439 4006612.95069242 132.04600000
1.51434296 4006612.86891153 132.04600000
1.29200938 4006612.46276775 130.75700000
1.27191235 4006612.38889549 130.75100000
1.25203234 4006612.30696391 130.74200000
1.09303417 4006611.90339411 130.75500000
1.07194856 4006611.82937116 130.76600000
1.57215829 4006611.45447087 144.31700000
1.61094202 4006611.40575925 145.35600000
1.59099569 4006611.33089841 145.34500000
1.57089867 4006611.25702616 145.27000000
1.54875817 4006611.18992327 145.35400000
1.49801517 4006611.11137934 145.36500000
1.47791814 4006611.03750709 145.35800000
1.45577764 4006610.97040420 145.35600000
1.43568062 4006610.89653195 145.34500000
1.30145115 4006610.53618843 145.37600000
1.28036554 4006610.46216548 145.38600000
1.25921362 4006610.39521329 145.38200000
1.17804167 4006610.30393835 144.52900000
4.21248633 4006622.74733445 110.84700000
4.20308894 4006622.60327305 111.86100000
4.15475713 4006622.50891185 111.85500000
4.16079738 4006622.25694455 113.56600000
4.11352047 4006622.15566330 113.57200000
4.01592230 4006622.17214354 111.52700000
4.07122891 4006621.80933481 115.26600000
4.05233747 4006621.72755392 115.26300000
4.04294009 4006621.58349251 116.41200000
4.02893735 4006621.46300631 117.15100000
4.01004591 4006621.38122542 117.13400000
3.83231841 4006621.51193478 112.35600000
4.01828033 4006621.12150020 119.03500000
3.96895995 4006621.02698830 119.02700000
3.84884129 4006621.19783767 115.26100000
3.82896128 4006621.11590608 115.26700000
3.93599945 4006620.83179197 119.73100000
3.92298529 4006620.71145647 120.44100000
3.76173803 4006620.93976399 115.27300000
3.94182269 4006620.58788401 121.44200000
3.74185802 4006620.85783240 115.29400000
3.89250230 4006620.49337211 121.56800000
3.87602205 4006620.39577395 121.95800000
3.89124267 4006620.29592741 122.47000000
3.84192228 4006620.20141551 122.67500000
3.82303085 4006620.11963462 122.76300000
3.80655061 4006620.02203645 122.88800000
3.68188150 4006619.59234166 123.43300000
3.63234410 4006619.50588910 123.43300000
3.61345267 4006619.42410821 123.41600000
3.59251776 4006619.34909668 123.31900000
3.54298036 4006619.26264411 123.29100000
3.56181775 4006619.13907166 124.45800000
3.54292632 4006619.05729077 124.54200000
3.49360593 4006618.96277887 124.65000000
3.47471450 4006618.88099798 124.71700000
3.45582307 4006618.79921709 124.80800000
3.43714865 4006618.70937687 124.88900000
3.38761125 4006618.62292430 124.97200000
3.36871981 4006618.54114341 125.05300000
3.34883980 4006618.45921182 125.12500000
3.33009907 4006618.37644236 125.20600000
3.28176726 4006618.28208116 125.29400000
3.26188725 4006618.20014957 125.38600000
3.24299581 4006618.11836868 125.44700000
3.22410438 4006618.03658779 125.53800000
3.20521295 4006617.95480690 125.61300000
3.15468697 4006617.86820364 125.68800000
3.13700113 4006617.77851411 125.77700000
3.11810969 4006617.69673322 125.85000000
3.09822968 4006617.61480164 125.93000000
3.07933825 4006617.53302075 126.02700000
3.02995155 4006617.44557960 126.08600000
3.01007153 4006617.36364802 126.16200000
2.99118010 4006617.28186713 126.24000000
2.94164270 4006617.19541456 126.24600000
2.92055709 4006617.12139161 126.25200000
2.93818890 4006617.00572779 127.65600000
2.91944816 4006616.92295832 127.62700000
2.85227896 4006616.95216958 126.22300000
2.89935114 4006616.84908607 127.60600000
2.84882516 4006616.76248281 127.51700000
2.82872813 4006616.68861056 127.45700000
2.75353011 4006616.35243909 128.10400000
2.73584427 4006616.26274956 128.52600000
2.71695284 4006616.18096867 128.50900000
2.66642686 4006616.09436541 128.54400000
2.68059258 4006616.00143892 129.75300000
2.66170115 4006615.91965803 129.67300000
2.52637415 4006615.97792985 126.23600000
2.64160412 4006615.84578578 129.61700000
2.57098111 4006615.68531027 129.40800000
2.58635243 4006615.58447514 130.71000000
2.56746100 4006615.50269425 130.71400000
2.54532050 4006615.43559136 130.71400000
2.49578310 4006615.34913879 130.69400000
2.37567672 4006615.30756406 127.93400000
2.29224428 4006615.23111782 127.17500000
2.43691462 4006615.11155407 131.01600000
2.24029569 4006615.16048253 126.25700000
2.41802319 4006615.02977318 131.05000000
2.39807686 4006614.95491235 131.08700000
2.34755088 4006614.86830908 131.12100000
2.08624024 4006614.92356077 125.18000000
2.32745386 4006614.79443683 131.15800000
2.06614322 4006614.84968852 124.99900000
2.30976802 4006614.70474731 131.19700000
2.01682283 4006614.75517662 124.88400000
2.28762752 4006614.63764441 131.24400000
2.23809011 4006614.55119185 131.26400000
2.21919868 4006614.46941096 131.26100000
2.14752078 4006614.31585550 130.76100000
2.12742375 4006614.24198325 130.76100000
2.10874933 4006614.15214303 131.38600000
2.08865231 4006614.07827078 131.35200000
2.06855528 4006614.00439852 131.32600000
1.58848521 4006614.04147579 121.25900000
2.01818000 4006613.91680668 131.25000000
1.57079937 4006613.95178626 121.27700000
1.99215167 4006613.67613569 132.29800000
1.97205464 4006613.60226344 132.29600000
1.92047377 4006613.52258023 132.29400000
1.90158233 4006613.44079935 132.26300000
1.88148531 4006613.36692709 132.25100000
1.86039970 4006613.29290414 132.23500000
1.81086230 4006613.20645158 132.13600000
1.79212157 4006613.12368211 132.12800000
1.76983037 4006613.05756780 132.10400000
1.72029296 4006612.97111523 132.06900000
0.90482316 4006612.92570601 115.05500000
0.88713732 4006612.83601648 115.30300000
1.68046662 4006612.81432282 131.97900000
0.86824589 4006612.75423559 115.29500000
1.62972363 4006612.73577889 131.97000000
1.54734608 4006612.65241259 130.77000000
1.52845465 4006612.57063170 130.76800000
1.23785521 4006611.78284177 130.74800000
1.78865724 4006611.48747399 144.40100000
1.11906337 4006611.31459237 131.38400000
1.79800059 4006611.42618205 145.24800000
1.71682864 4006611.33490712 144.27200000
0.99905366 4006611.06667572 130.79800000
0.97895664 4006610.99280347 130.78300000
0.92843065 4006610.90620020 130.73800000
0.93897960 4006610.83699963 131.15400000
0.88838730 4006610.75746712 131.13900000
0.81896989 4006610.58908297 130.75100000
0.80007845 4006610.50730208 130.72900000
1.42848969 4006610.53228850 144.28700000
1.46621852 4006610.49049693 145.36300000
1.44627219 4006610.41563610 145.38600000
1.42518658 4006610.34161315 145.38600000
1.40388397 4006610.27564953 145.40100000
4.25120374 4006622.70569358 110.76300000
4.27350722 4006622.55938379 111.86300000
4.22313193 4006622.47179195 111.85600000
4.23121566 4006622.21305530 113.55500000
4.18189527 4006622.11854340 113.61500000
4.08528568 4006622.13517435 111.48200000
4.06661127 4006622.04533412 111.46200000
4.14059229 4006621.77236561 115.25700000
4.12071228 4006621.69043402 115.25700000
4.11252048 4006621.53846398 116.42700000
4.09950632 4006621.41812848 117.22500000
4.08061489 4006621.33634759 117.20800000
4.08786073 4006621.07647166 119.05900000
4.03832333 4006620.99001910 119.04400000
3.83467557 4006621.29076416 112.49400000
3.89832466 4006621.07893689 115.25700000
4.00437426 4006620.79467207 119.68000000
3.99136009 4006620.67433658 120.42600000
3.83011284 4006620.90264410 115.24000000
4.01019749 4006620.55076412 121.47500000
3.81242700 4006620.81295457 115.27700000
3.99251165 4006620.46107460 121.53600000
3.97708630 4006620.35655637 122.00700000
3.95841188 4006620.26671615 122.30600000
3.91128567 4006620.16444631 122.55200000
3.89359983 4006620.07475678 122.66300000
3.87251422 4006620.00073383 122.66600000
3.82418241 4006619.90637263 122.66600000
3.68182747 4006619.38698831 123.31300000
3.66293603 4006619.30520743 123.30800000
3.61256075 4006619.21761558 123.27600000
3.59246372 4006619.14374333 123.20900000
3.57357229 4006619.06196244 123.13200000
3.38063733 4006618.25062152 125.27700000
3.36189660 4006618.16785205 125.37500000
3.31235919 4006618.08139948 125.46200000
3.29368478 4006617.99155926 125.54100000
3.27479334 4006617.90977837 125.62400000
3.25590191 4006617.82799748 125.70700000
3.20537593 4006617.74139422 125.77700000
3.18648450 4006617.65961333 125.88600000
3.16759306 4006617.57783244 125.90600000
3.14870163 4006617.49605155 126.01500000
3.09817565 4006617.40944829 126.09300000
3.07943491 4006617.32667882 126.00100000
3.06054348 4006617.24489793 126.00700000
3.04066347 4006617.16296634 126.10000000
2.99112607 4006617.07651378 126.18200000
2.97223463 4006616.99473289 126.21000000
2.95235462 4006616.91280130 126.21600000
2.96893153 4006616.80405754 127.54100000
2.94883451 4006616.73018529 127.52700000
2.89929710 4006616.64373272 127.43300000
2.87821150 4006616.56970977 127.41500000
2.85932006 4006616.48792889 127.32700000
2.79005335 4006616.31855616 127.60000000
2.73579024 4006616.05739621 128.48300000
2.71470463 4006615.98337326 128.45500000
2.61568386 4006616.01582148 126.23600000
2.69581320 4006615.90159237 128.44500000
2.59580385 4006615.93388989 126.25300000
2.71118452 4006615.80075725 129.59500000
2.57585752 4006615.85902906 126.19300000
2.63935591 4006615.64819037 129.46400000
2.62046448 4006615.56640948 129.42900000
2.60051815 4006615.49154865 129.43600000
2.54999217 4006615.40494539 129.23500000
2.52989515 4006615.33107314 129.31300000
2.44525711 4006615.26253553 128.03900000
2.39330852 4006615.19190024 127.19000000
2.30867049 4006615.12336264 126.25000000
2.20634662 4006614.96513551 125.32800000
2.18745519 4006614.88335462 125.23000000
2.13572361 4006614.80465999 125.01300000
2.11683218 4006614.72287910 124.91200000
2.30646491 4006614.51407195 130.84800000
2.28757348 4006614.43229107 130.87800000
1.93092517 4006614.48919431 122.77900000
2.26747646 4006614.35841881 130.87800000
1.88033287 4006614.40966180 122.77600000
2.21695047 4006614.27181555 130.89300000
2.22870501 4006614.19470634 131.37300000
2.20875868 4006614.11984551 131.45700000
2.15922128 4006614.03339294 131.50000000
2.13813568 4006613.95936999 131.52600000
2.11924424 4006613.87758910 131.52900000
2.09929792 4006613.80272827 131.53900000
2.08040648 4006613.72094738 131.64100000
2.02867491 4006613.64225276 131.67100000
2.00857788 4006613.56838051 131.71200000
1.98968645 4006613.48659962 131.73800000
1.96995713 4006613.40367945 132.12300000
1.30607756 4006613.40565591 117.85000000
1.94986011 4006613.32980720 132.18600000
1.28718612 4006613.32387502 117.85500000
1.93096868 4006613.24802631 132.18400000
1.91087165 4006613.17415406 132.17100000
1.85929077 4006613.09447085 132.14500000
1.84039934 4006613.01268996 132.10600000
1.82030231 4006612.93881771 132.06500000
1.76977633 4006612.85221445 132.02600000
0.95650070 4006612.79904728 115.29100000
1.74967931 4006612.77834220 131.99600000
0.93662069 4006612.71711570 115.30500000
1.73093857 4006612.69557273 131.97700000
1.64856103 4006612.61220643 130.76100000
1.59682945 4006612.53351181 130.76300000
1.33793088 4006611.74347350 130.74000000
1.28854417 4006611.65603235 130.73500000
1.85808694 4006611.44343404 144.43600000
1.18963235 4006611.26971454 131.38600000
1.89822695 4006611.38582520 145.21200000
1.81683799 4006611.30260960 144.27200000
1.06848336 4006611.02263576 130.77200000
1.04853703 4006610.94777493 130.77400000
1.00954857 4006610.79212179 131.10000000
0.98846297 4006610.71809884 131.11700000
0.88855028 4006610.54405444 130.74800000
1.58984501 4006610.71468767 144.28900000
0.86845325 4006610.47018219 130.76800000
1.56869309 4006610.64773548 144.29200000
1.54859606 4006610.57386323 144.29200000
1.52751046 4006610.49984028 144.29100000
1.50635854 4006610.43288808 144.29200000
1.54514226 4006610.38417646 145.36900000
1.49454997 4006610.30464395 145.38600000
1.47324735 4006610.23868034 145.38000000
4.52899462 4006622.74804005 110.58300000
4.47846864 4006622.66143679 110.56900000
4.47253734 4006622.49463805 111.86000000
4.44424852 4006622.26879576 112.85800000
4.43024578 4006622.14830956 113.56700000
4.41376553 4006622.05071140 113.80600000
4.38894280 4006621.80213177 115.23600000
4.29607034 4006621.99331939 111.41700000
4.37026838 4006621.71229154 115.25700000
4.35604862 4006621.59986468 115.87500000
4.34197956 4006621.48644925 116.34700000
4.33137658 4006621.35029648 117.34700000
4.29848241 4006621.14802939 118.02700000
4.28787943 4006621.01187662 119.12500000
4.26898800 4006620.93009573 119.11100000
4.25257407 4006620.82542681 119.57200000
4.24076550 4006620.69718268 120.41600000
4.22428525 4006620.59958452 120.78800000
3.97950889 4006620.95778772 112.56900000
4.20901060 4006620.49407772 121.24000000
4.19139107 4006620.39731743 121.58600000
4.17370523 4006620.30762791 121.70900000
4.15481380 4006620.22584702 121.83300000
3.87954217 4006620.57838997 113.23300000
4.03376148 4006619.77242632 122.69100000
3.98542967 4006619.67806511 122.70600000
3.96653823 4006619.59628423 122.71000000
3.94665822 4006619.51435264 122.72200000
3.89712082 4006619.42790007 122.72600000
3.87717449 4006619.35303924 122.73600000
3.79248243 4006619.07914829 123.13700000
3.77260241 4006618.99721670 123.13500000
3.75250539 4006618.92334445 123.04100000
3.70296798 4006618.83689189 123.01300000
3.15116773 4006616.85611490 125.87500000
3.09838126 4006616.78434033 125.73600000
3.07948983 4006616.70255944 125.65200000
3.06300958 4006616.60496128 126.20900000
3.04291255 4006616.53108903 126.22600000
3.05933877 4006616.42333385 127.27700000
3.03840386 4006616.34832231 127.25100000
2.98886646 4006616.26186975 127.17600000
2.94888942 4006616.10606591 127.23600000
2.89935202 4006616.01961335 127.24000000
2.88046058 4006615.93783246 127.42800000
2.86178616 4006615.84799223 127.61000000
2.84289473 4006615.76621134 127.72500000
2.80631746 4006615.59474093 128.33500000
2.78538255 4006615.51972940 128.24200000
2.79954828 4006615.42680291 129.30200000
2.74759969 4006615.35616762 128.63600000
2.69586811 4006615.27747300 128.25300000
2.57937851 4006615.21217235 126.61900000
2.55943219 4006615.13731152 126.51000000
2.50868919 4006615.05876760 126.23100000
2.45695762 4006614.98007297 125.56900000
2.43806618 4006614.89829208 125.46100000
2.38648531 4006614.81860888 125.02900000
2.33574231 4006614.74006495 124.78600000
2.31685088 4006614.65828406 124.79900000
2.18048127 4006614.51105183 122.84800000
2.13094387 4006614.42459927 122.84700000
2.11205243 4006614.34281838 122.83300000
1.90966518 4006614.01153542 121.12000000
1.88978517 4006613.92960383 121.12500000
2.28642280 4006613.81608033 130.78300000
2.26753137 4006613.73429944 130.78500000
2.24758504 4006613.65943861 130.78500000
2.19705906 4006613.57283534 130.78100000
2.17696203 4006613.49896309 130.79200000
2.15807060 4006613.41718220 130.99000000
2.13917917 4006613.33540131 131.00700000
2.11824426 4006613.26038978 130.99400000
2.06750126 4006613.18184586 130.83000000
2.10990177 4006613.10940832 131.89500000
2.06036437 4006613.02295575 131.92700000
2.03927876 4006612.94893280 131.94500000
2.02053803 4006612.86616334 132.00100000
2.00044100 4006612.79229108 131.98300000
1.18723169 4006612.73205316 115.29400000
1.94991502 4006612.70568782 131.96200000
1.92981799 4006612.63181557 131.94900000
1.90987167 4006612.55695474 131.92500000
1.85934568 4006612.47035148 131.88400000
1.83924866 4006612.39647922 131.84700000
1.82035723 4006612.31469834 131.80400000
1.76877635 4006612.23501513 131.77000000
1.74988492 4006612.15323424 131.74800000
1.53794958 4006611.67887846 130.74800000
1.51905814 4006611.59709757 130.74200000
1.45913478 4006611.36643290 131.41000000
1.44024335 4006611.28465201 131.39500000
2.08875161 4006611.38351068 144.50500000
2.03702003 4006611.30481605 144.26400000
1.33912507 4006611.11851624 130.77000000
1.31924505 4006611.03658465 130.76100000
1.92288759 4006611.01834479 144.27200000
1.90279056 4006610.94447253 144.26600000
1.88284423 4006610.86961170 144.27400000
1.18968726 4006610.64559517 131.08700000
1.86175863 4006610.79558875 144.26400000
1.11906425 4006610.48511965 130.73800000
1.10017282 4006610.40333876 130.74600000
1.76646358 4006610.38554503 145.29400000
1.68529163 4006610.29427009 144.38400000
0.84961673 4006609.76428192 130.76400000
0.83072530 4006609.68250103 130.76800000
0.81077897 4006609.60764020 130.94900000
0.76025299 4006609.52103694 130.75000000
4.78553692 4006622.92977626 110.13500000
4.76664549 4006622.84799537 110.12800000
4.71732510 4006622.75348347 110.11000000
4.74445096 4006622.57553913 111.86000000
4.69858437 4006622.67071400 110.07000000
4.72797071 4006622.47794097 112.02100000
4.68084450 4006622.37567113 112.15500000
4.70435357 4006622.22145270 113.56900000
4.65503318 4006622.12694080 113.56700000
4.67266499 4006622.01127698 114.25300000
4.61274162 4006621.78061231 115.26600000
4.59731627 4006621.67609409 115.68200000
4.58550770 4006621.54784996 116.52100000
4.58786485 4006621.32667934 117.69000000
4.54095565 4006621.21635016 117.94500000
4.56205354 4006621.07794901 119.30400000
4.54436770 4006620.98825948 119.29400000
4.49625290 4006620.88583894 119.61900000
4.47977266 4006620.78824078 119.93800000
4.46314171 4006620.69163120 120.16400000
4.44440098 4006620.60886173 120.17700000
4.26553420 4006620.74040896 115.26200000
4.37724405 4006620.42564888 120.41400000
4.35729772 4006620.35078805 120.41700000
4.33862330 4006620.26094783 120.42800000
4.07127242 4006620.56816681 112.90200000
4.28788031 4006620.18240390 120.43100000
4.27019447 4006620.09271437 120.43800000
4.21966849 4006620.00611111 120.43200000
4.18670800 4006619.81091478 121.05300000
4.16682798 4006619.72898320 121.02800000
4.14793655 4006619.64720231 120.95800000
3.85366630 4006618.67778495 122.29400000
3.83499188 4006618.58794472 122.47600000
3.81730604 4006618.49825520 122.67400000
3.76656304 4006618.41971127 122.67900000
3.72779160 4006618.25599879 122.57000000
3.67825419 4006618.16954623 122.50700000
3.14308488 4006616.28537882 125.31600000
3.09234189 4006616.20683490 125.15200000
3.07246188 4006616.12490331 125.06400000
2.96174148 4006615.61034137 126.65200000
2.94285005 4006615.52856048 126.59100000
2.89126917 4006615.44887727 126.51300000
2.87117214 4006615.37500502 126.32200000
2.85469190 4006615.27740686 126.71600000
2.83360629 4006615.20338391 126.77700000
2.78286330 4006615.12483998 126.41600000
2.73128242 4006615.04515678 126.05000000
2.62880785 4006614.88791822 125.02500000
2.60886152 4006614.81305739 125.04100000
2.55932412 4006614.72660483 124.50900000
2.53823851 4006614.65258188 124.51300000
2.42295451 4006614.57937260 123.13200000
2.40526867 4006614.48968307 123.12800000
2.35452568 4006614.41113915 122.87500000
2.33464566 4006614.32920756 122.66300000
2.23232179 4006614.17098042 121.63800000
2.13105281 4006614.00583324 120.88800000
2.11216138 4006613.92405235 120.90400000
1.82860217 4006613.50149445 118.09200000
1.77906477 4006613.41504189 118.09700000
1.76032404 4006613.33227242 117.99000000
1.63434039 4006613.32925230 115.29100000
1.58381441 4006613.24264903 114.75100000
1.66026065 4006613.15921659 117.06900000
1.60973467 4006613.07261333 117.08500000
1.54723714 4006613.07117862 115.31400000
1.49671115 4006612.98457535 115.30100000
1.42849933 4006612.80828257 115.29000000
1.40960790 4006612.72650168 115.27800000
1.36127609 4006612.63214048 114.51600000
2.01109889 4006612.30432448 131.08900000
1.96156149 4006612.21787191 131.11500000
1.94161516 4006612.14301108 131.13800000
1.92173515 4006612.06107949 131.19700000
1.90163812 4006611.98720724 131.21800000
1.85089513 4006611.90866332 131.24000000
1.83116581 4006611.82574315 131.28500000
1.81106879 4006611.75187090 131.30000000
1.79217735 4006611.67009001 131.29400000
1.77328592 4006611.58830912 131.41200000
1.72155435 4006611.50961449 131.41900000
1.70160802 4006611.43475366 131.41400000
1.68151099 4006611.36088141 131.40600000
2.33243044 4006611.44392281 144.60400000
1.63219060 4006611.26636951 131.37300000
2.31112782 4006611.37795919 145.08000000
2.25954694 4006611.29827599 144.26300000
1.59214725 4006611.11763643 131.24600000
2.23944992 4006611.22440374 144.25900000
2.18651275 4006611.15361775 144.26400000
1.39218346 4006610.55811209 131.04200000
1.27096816 4006610.31810407 130.74400000
1.25207672 4006610.23632318 130.73800000
1.97934575 4006610.44227407 145.19000000
1.92881977 4006610.35567080 144.49600000
1.16271298 4006609.99307820 130.77200000
1.14261596 4006609.91920595 130.77600000
1.07199295 4006609.75873044 130.77000000
1.08269259 4006609.68854128 131.36900000
1.03216661 4006609.60193802 130.79100000
0.81309437 4006608.96869213 130.80000000
0.76271909 4006608.88110028 130.80000000
0.67320465 4006608.63884388 130.81500000
4.97621227 4006622.92647316 110.13400000
4.95633226 4006622.84454157 109.98200000
4.91026094 4006622.73535168 110.31800000
4.93618120 4006622.56531597 111.85100000
4.88910902 4006622.66839948 110.02200000
4.91849536 4006622.47562645 111.86000000
4.82436328 4006622.46936936 110.19800000
4.89509523 4006622.21107884 113.57800000
4.84555783 4006622.12462628 113.55800000
4.81628044 4006621.89863328 114.44500000
4.80326627 4006621.77829779 115.26200000
4.78678603 4006621.68069963 115.44400000
4.77624936 4006621.53747610 116.54100000
4.75630304 4006621.46261527 116.46600000
4.73027471 4006621.22194428 117.81600000
4.71401148 4006621.11628678 118.28600000
4.69979172 4006621.00385992 118.84500000
4.68451707 4006620.89835312 119.25900000
4.66668053 4006620.80965217 119.33300000
4.61630524 4006620.72206033 119.40200000
4.59741381 4006620.64027944 119.37800000
4.57972797 4006620.55058991 119.34700000
4.53040758 4006620.45607801 119.55100000
4.40673846 4006620.64358254 115.27700000
4.51272174 4006620.36638849 119.67600000
4.38905262 4006620.55389302 115.27700000
4.49383031 4006620.28460760 119.69400000
4.24312265 4006620.47601206 113.00000000
4.22543681 4006620.38632253 112.99000000
4.17611642 4006620.29181063 113.08300000
4.15843058 4006620.20212111 113.09300000
4.37262729 4006619.83217547 120.44200000
4.32308988 4006619.74572291 120.47000000
4.30441547 4006619.65588269 120.48600000
4.28446914 4006619.58102186 120.49600000
4.23613733 4006619.48666065 120.51100000
4.21851781 4006619.38990037 120.78500000
4.19857148 4006619.31503954 120.76300000
4.07730214 4006618.86967817 121.30900000
4.02798175 4006618.77516627 121.55600000
3.81840356 4006618.07963986 122.40600000
3.79852355 4006617.99770828 122.40300000
3.77963212 4006617.91592739 122.38600000
3.72888912 4006617.83738346 122.28100000
3.70900911 4006617.75545187 122.21600000
3.19371981 4006615.95321606 125.04400000
3.17482838 4006615.87143517 125.04500000
3.15714254 4006615.78174564 125.27300000
3.13726253 4006615.69981405 125.39200000
3.04895368 4006615.44964901 125.83200000
3.03126784 4006615.35995949 125.95800000
3.01117081 4006615.28608724 126.12500000
2.99243008 4006615.20331777 126.02700000
2.94190410 4006615.11671451 126.12500000
2.92301267 4006615.03493362 126.02700000
2.87128109 4006614.95623899 125.68300000
2.80059177 4006614.80283423 125.03900000
2.74886019 4006614.72413961 124.37600000
2.69932279 4006614.63768704 124.35900000
2.67823718 4006614.56366409 124.36500000
2.59579332 4006614.48736855 123.23700000
2.57591331 4006614.40543696 123.12100000
2.52637591 4006614.31898440 122.80700000
2.47479503 4006614.23930119 122.47000000
2.37232046 4006614.08206264 121.21000000
2.32278306 4006613.99561008 121.13300000
2.27225708 4006613.90900681 120.78600000
2.25351634 4006613.82623735 120.80200000
2.01927752 4006613.49819135 118.18800000
1.96875154 4006613.41158809 118.18300000
1.95106570 4006613.32189856 118.11100000
1.79323049 4006613.32211540 114.70500000
1.77554465 4006613.23242587 115.29100000
1.80146491 4006613.06239017 116.99800000
1.78158490 4006612.98045858 117.01000000
1.62022958 4006612.79805941 115.30500000
1.60148885 4006612.71528994 115.30400000
1.50142546 4006612.54223411 114.39700000
1.84281228 4006611.33792724 130.74800000
2.49132054 4006611.43678591 144.64100000
1.79108071 4006611.25923262 130.84100000
2.50186949 4006611.36758533 145.01400000
2.41964264 4006611.28323045 144.25900000
1.78288892 4006611.10726257 131.35800000
2.39834002 4006611.21726684 144.26400000
1.76279189 4006611.03339032 131.39500000
1.71226591 4006610.94678706 131.39700000
1.69216888 4006610.87291481 131.37100000
1.67222256 4006610.79805397 131.36000000
2.31605914 4006610.92755861 144.24800000
2.26531614 4006610.84901469 144.25700000
1.60280514 4006610.62966982 131.10800000
2.24423054 4006610.77499174 144.26400000
1.55326774 4006610.54321726 131.06700000
2.22307862 4006610.70803954 144.26300000
1.53218213 4006610.46919431 131.01600000
2.20298159 4006610.63416729 144.27000000
1.51223580 4006610.39433348 130.98500000
1.46269840 4006610.30788091 130.76300000
1.44281839 4006610.22594933 130.77400000
2.14064704 4006610.41931990 144.28500000
1.39207539 4006610.14740540 130.77600000
2.14893549 4006610.36494801 145.13400000
2.09939809 4006610.27849545 144.54200000
1.35224905 4006609.99061298 130.79200000
2.04766652 4006610.19980082 144.20500000
1.33335762 4006609.90883209 130.77600000
1.26273461 4006609.74835658 130.77000000
1.27222866 4006609.68607606 131.33000000
1.25333723 4006609.60429517 131.31500000
1.17216528 4006609.51302023 130.74600000
1.02371605 4006609.04024986 130.80200000
0.97334077 4006608.95265802 130.80400000
0.84378297 4006608.56166853 130.81500000
0.82390296 4006608.47973694 130.81700000
5.23028935 4006622.91867329 109.75700000
5.21402612 4006622.81301579 110.11200000
5.16916039 4006622.69591726 110.52100000
5.19282017 4006622.54071025 111.86500000
5.14559729 4006622.64478234 109.88900000
5.14349978 4006622.44619835 111.85800000
5.12807443 4006622.34168013 112.13600000
5.24340106 4006622.00319414 117.11000000
5.19513557 4006621.90176218 117.29100000
5.10219680 4006622.10002056 113.48600000
5.17639483 4006621.81899271 117.28800000
5.07397430 4006621.86710751 114.65200000
5.06096013 4006621.74677201 115.26100000
5.04447989 4006621.64917385 115.51300000
5.03409392 4006621.50496174 116.56900000
4.84807797 4006621.69004298 111.01600000
5.00218832 4006621.30284536 117.36400000
4.98796857 4006621.19041850 117.85600000
4.97049974 4006621.09266964 118.15100000
4.92216793 4006620.99830843 118.26400000
4.90448209 4006620.90861891 118.37200000
4.81869250 4006621.05334329 115.23300000
4.77036069 4006620.95898209 115.26700000
4.75168627 4006620.86914186 115.27700000
4.73389237 4006620.36874564 119.00200000
4.71521795 4006620.27890542 118.99600000
4.69512092 4006620.20503316 118.96700000
4.64678911 4006620.11067196 118.93100000
4.66442092 4006619.99500814 119.91100000
4.61510053 4006619.90049624 119.97000000
4.59741469 4006619.81080672 120.04000000
4.57852326 4006619.72902583 120.12200000
4.34791262 4006619.99430254 113.16700000
4.52920287 4006619.63451393 120.16400000
4.51031144 4006619.55273304 120.19400000
4.49142000 4006619.47095215 120.28100000
4.44209961 4006619.37644025 120.34800000
4.42320818 4006619.29465936 120.43000000
4.40552234 4006619.20496983 120.44800000
4.35499636 4006619.11836657 120.54900000
4.33625563 4006619.03559710 120.56900000
4.31856979 4006618.94590758 120.70200000
4.29868977 4006618.86397599 120.73300000
4.25035797 4006618.76961479 120.75000000
3.93620770 4006617.71826584 122.18400000
3.91731627 4006617.63648495 122.18000000
3.89721924 4006617.56261270 122.09700000
3.84669326 4006617.47600944 122.06900000
3.82780183 4006617.39422855 121.94300000
3.26078095 4006615.51329811 124.56700000
3.27374108 4006615.42828025 124.92800000
3.22420368 4006615.34182769 125.01400000
3.20432367 4006615.25989610 125.01300000
3.18543223 4006615.17811522 125.01000000
3.14885496 4006615.00664480 125.52900000
3.09727409 4006614.92696159 125.55300000
3.07838265 4006614.84518071 125.23600000
3.02665108 4006614.76648608 125.04200000
2.92432721 4006614.60825895 124.20900000
2.90543577 4006614.52647806 124.22200000
2.85348718 4006614.45584277 123.34700000
2.75357450 4006614.28179836 122.76300000
2.70184292 4006614.20310374 122.35500000
2.53010164 4006613.87649246 120.67500000
2.48056423 4006613.79003989 120.68000000
2.13697271 4006613.55558336 114.59800000
2.24753101 4006613.45408526 118.27200000
2.08750162 4006613.46206004 114.58700000
2.22765099 4006613.37215367 118.27700000
2.05107505 4006613.28960104 115.30500000
2.03323851 4006613.20090009 115.30500000
2.01350920 4006613.11797993 115.31600000
2.05915877 4006613.03086439 116.91100000
2.00863279 4006612.94426113 116.93000000
1.87807414 4006612.76554505 115.30000000
1.85918270 4006612.68376416 115.29300000
1.72869036 4006612.49797732 114.20600000
2.74901440 4006611.40526013 144.70700000
2.72906808 4006611.33039930 144.96000000
2.60544158 4006611.10620856 144.23800000
2.58435598 4006611.03218560 144.25300000
1.74048929 4006610.35022739 130.89300000
1.68875771 4006610.27153276 130.82800000
1.69945736 4006610.20134360 131.35000000
2.36769493 4006610.38312244 144.28500000
1.67936033 4006610.12747135 131.39900000
2.34654301 4006610.31617025 144.71000000
2.29601703 4006610.22956698 144.08900000
1.60873732 4006609.96699584 131.38800000
2.27592000 4006610.15569473 144.09700000
1.58984589 4006609.88521495 131.38900000
1.54151408 4006609.79085375 130.80700000
1.48993320 4006609.71117054 130.80200000
1.50048215 4006609.64196997 131.37500000
1.45094474 4006609.55551740 130.79200000
1.43106473 4006609.47358582 130.79100000
1.38047243 4006609.39405331 130.79400000
1.27086097 4006609.07792465 130.78300000
1.25113165 4006608.99500449 130.76800000
1.05215644 4006608.43563085 130.80000000
1.03205942 4006608.36175860 130.80000000
0.98047854 4006608.28207539 130.79100000
0.96158711 4006608.20029450 130.80200000
0.94149008 4006608.12642225 130.80400000
0.74251487 4006607.56704862 130.79800000
0.72157997 4006607.49203709 130.79800000
0.67204256 4006607.40558452 130.80000000
5.37395884 4006623.01138294 109.32000000
5.36335586 4006622.87523017 110.15400000
5.30102131 4006622.66038278 110.78500000
5.29162392 4006622.51632137 111.86100000
5.25993534 4006622.30614565 112.53800000
5.33533897 4006622.01720916 116.50000000
5.25038726 4006622.16307282 113.56700000
5.31765313 4006621.92751964 116.50000000
5.26811573 4006621.84106707 116.50100000
5.24944131 4006621.75122685 116.62100000
5.23281036 4006621.65461726 116.81900000
5.18342366 4006621.56717612 116.83000000
5.16354365 4006621.48524453 116.67900000
5.14932389 4006621.37281767 117.18100000
5.09978649 4006621.28636511 117.19500000
5.08111207 4006621.19652489 117.19400000
5.06222064 4006621.11474400 117.32900000
4.98570808 4006621.20524719 115.26300000
4.97873416 4006620.83294441 117.70800000
4.96104832 4006620.74325488 117.82300000
4.91172794 4006620.64874298 118.03700000
4.89404210 4006620.55905345 118.04900000
4.87515066 4006620.47727257 118.04900000
4.82462468 4006620.39066930 118.04900000
4.67507793 4006620.33651426 115.25200000
4.65739209 4006620.24682473 115.26000000
4.56099952 4006620.25539634 112.76700000
4.70456094 4006619.93739930 118.75700000
4.68687510 4006619.84770977 118.76100000
4.63634911 4006619.76110651 118.74400000
4.61745768 4006619.67932562 118.70800000
4.56693170 4006619.59272236 118.66700000
4.41035612 4006619.79038391 113.39900000
4.39146469 4006619.70860302 113.43400000
4.34313288 4006619.61424182 113.44400000
4.27381301 4006618.41004301 121.05200000
4.25393299 4006618.32811143 121.13700000
4.20560118 4006618.23375022 121.20600000
4.18670975 4006618.15196934 121.28700000
4.16682974 4006618.07003775 121.30900000
4.11849793 4006617.97567655 121.40500000
4.09960650 4006617.89389566 121.43000000
4.07972648 4006617.81196407 121.52300000
4.06098575 4006617.72919460 121.54500000
4.01265394 4006617.63483340 121.62500000
3.99277393 4006617.55290181 121.68800000
3.97388250 4006617.47112092 121.77800000
3.92555069 4006617.37675972 121.80400000
3.90567068 4006617.29482813 121.88500000
3.88677924 4006617.21304725 121.88800000
3.83724184 4006617.12659468 121.78700000
3.81736183 4006617.04466309 121.76000000
3.30086694 4006615.25033592 124.38700000
3.28076991 4006615.17646366 124.23200000
3.23024393 4006615.08986040 124.15000000
3.19366666 4006614.91838999 124.84700000
3.17598082 4006614.82870046 124.95200000
3.15368962 4006614.76258615 124.73200000
3.05257134 4006614.59645038 124.03500000
3.03367991 4006614.51466949 124.03800000
2.89950447 4006614.35967932 122.76300000
2.88061304 4006614.27789843 122.76500000
2.83008706 4006614.19129517 122.23100000
2.67702019 4006613.95452411 120.70900000
2.62649421 4006613.86792085 120.54000000
2.60880837 4006613.77823132 120.54900000
2.30179412 4006613.71524520 114.50000000
2.28410828 4006613.62555567 114.52200000
2.42531254 4006613.52872925 118.38400000
2.23457088 4006613.53910311 114.48700000
2.37456955 4006613.45018533 118.38300000
2.35589513 4006613.36034510 118.30300000
2.17931919 4006613.27779247 115.30300000
2.16163335 4006613.18810294 115.30400000
2.15471346 4006613.02115350 116.81500000
2.13702762 4006612.93146398 116.82200000
2.00631827 4006612.75373648 115.29500000
1.95579229 4006612.66713321 115.27900000
1.85693450 4006612.48616875 114.01300000
2.87740923 4006611.39246298 144.85000000
2.82666624 4006611.31391905 144.26100000
2.67135116 4006610.87955259 144.25700000
2.61961959 4006610.80085796 144.25700000
2.52553014 4006610.38290560 145.02200000
2.47478714 4006610.30436168 144.68600000
1.72763810 4006610.01647921 130.77400000
2.42426116 4006610.21775841 144.00700000
1.70754108 4006609.94260695 130.76800000
1.68864964 4006609.86082607 130.75500000
1.63827436 4006609.77323422 130.75700000
1.61817734 4006609.69936197 130.79100000
1.59808031 4006609.62548972 130.77600000
1.57918888 4006609.54370883 130.78700000
1.52760800 4006609.46402563 130.79600000
1.50871657 4006609.38224474 130.80700000
1.48861954 4006609.30837249 130.82200000
1.46873953 4006609.22644090 130.81500000
1.41814723 4006609.14690839 130.81700000
1.39805021 4006609.07303614 130.82000000
1.37937579 4006608.98319592 130.82000000
1.35927876 4006608.90932366 130.82600000
1.30853576 4006608.83077974 130.82000000
1.28880645 4006608.74785957 130.82800000
0.88980114 4006607.63603235 130.88900000
0.86970411 4006607.56216010 130.87800000
0.84982410 4006607.48022852 130.88200000
0.80028670 4006607.39377595 130.87800000
5.59407457 4006623.02066015 108.95600000
5.61758364 4006622.86644173 110.16400000
5.56826325 4006622.77192983 110.16600000
5.54585170 4006622.50753292 111.85500000
5.52717728 4006622.41769270 111.84600000
5.47648832 4006622.54450212 109.55400000
5.50461504 4006622.15428437 113.56400000
5.48692920 4006622.06459485 113.56500000
5.46111788 4006621.81586452 115.04000000
5.44704882 4006621.70244908 115.53500000
5.43162347 4006621.59793086 115.86100000
5.38230308 4006621.50341896 116.08300000
5.36461724 4006621.41372943 116.16000000
5.34813700 4006621.31613127 116.36200000
5.18101247 4006621.58299339 110.73100000
5.29761102 4006621.22952801 116.36500000
5.26223934 4006621.05014895 116.52700000
5.21171336 4006620.96354569 116.52100000
5.19402752 4006620.87385617 116.51300000
5.14350153 4006620.78725290 116.50000000
5.04353481 4006620.40785515 117.25700000
5.02464338 4006620.32607426 117.16600000
5.00575195 4006620.24429337 117.14200000
4.84340805 4006620.06174350 115.26300000
4.90585154 4006619.85782486 118.20300000
4.88696011 4006619.77604397 118.22300000
4.83862830 4006619.68168277 118.23200000
4.81874829 4006619.59975119 118.24400000
4.79985686 4006619.51797030 118.25000000
4.68809297 4006619.62737703 115.27800000
4.75152505 4006619.42360910 118.36100000
4.67040713 4006619.53768750 115.27500000
4.73285063 4006619.33376887 118.50100000
4.71395920 4006619.25198798 118.49800000
4.66562739 4006619.15762678 118.47200000
4.64469248 4006619.08261525 118.41600000
4.59515508 4006618.99616269 118.38300000
4.00210588 4006616.87456125 121.55100000
3.95157989 4006616.78795799 121.55000000
3.93268846 4006616.70617710 121.53500000
3.91379703 4006616.62439621 121.43000000
3.86327105 4006616.53779295 121.41000000
3.87969726 4006616.43003777 122.51700000
3.86095653 4006616.34726830 122.56300000
3.84206509 4006616.26548741 122.61400000
3.79153911 4006616.17888415 122.65200000
3.77264768 4006616.09710326 122.73700000
3.68554442 4006615.83902958 122.91700000
3.66665299 4006615.75724869 122.95700000
3.64677298 4006615.67531710 123.02500000
3.62788155 4006615.59353621 123.08000000
3.55861483 4006615.42416348 123.23600000
3.53972340 4006615.34238259 123.25300000
3.39616286 4006614.83090691 124.00000000
3.34557056 4006614.75137441 124.02700000
3.32773402 4006614.66267346 124.23800000
3.30679912 4006614.58766193 124.03800000
3.25726171 4006614.50120937 123.84100000
3.23837028 4006614.41942848 123.84700000
3.13604641 4006614.26120135 122.73600000
3.08310924 4006614.19041536 122.08000000
3.03477743 4006614.09605416 122.06900000
2.93245356 4006613.93782703 120.87800000
2.88192758 4006613.85122376 120.54100000
2.83239017 4006613.76477120 120.38800000
