-0.72106960 1628374.21738314 203.99800000
-0.70066109 1628374.16630974 203.99800000
-0.70941046 1628374.10466196 203.99800000
-0.71778878 1628374.04208558 204.00000000
-0.72616709 1628373.97950919 204.00100000
-0.73584507 1628373.91749035 204.00100000
-0.74719190 1628373.86234283 204.00100000
-0.72381487 1628373.80384056 204.00000000
-0.73256425 1628373.74219279 203.99800000
-0.74391107 1628373.68704526 203.99600000
-0.75024948 1628373.61666895 203.98800000
-0.76159631 1628373.56152143 203.99400000
-0.77034568 1628373.49987365 203.99000000
-0.78803092 1628373.37434982 202.65100000
-0.77872400 1628373.43729727 204.00100000
-0.75831548 1628373.38622386 203.99400000
-0.76799347 1628373.32420502 203.99200000
-0.77637178 1628373.26162864 203.98800000
-0.78475009 1628373.19905225 203.98800000
-0.79686937 1628373.05959931 203.14100000
-0.80821619 1628373.00445179 203.16900000
-0.81696557 1628372.94280401 203.26400000
-0.83128090 1628372.89508534 203.36900000
-0.81087239 1628372.84401194 203.39700000
-0.82314782 1628372.78849335 203.48500000
-0.83449464 1628372.73334582 203.55200000
-0.84584147 1628372.67819830 203.62500000
-0.82840146 1628372.63455375 203.72500000
-0.83715084 1628372.57290598 203.75300000
-1.04349801 1628371.40495485 192.32400000
-0.85239478 1628372.52481625 203.85800000
-0.86602674 1628372.30830027 202.34300000
-0.87830217 1628372.25278168 202.42700000
-0.88705155 1628372.19113390 202.45700000
-1.05842964 1628371.18899641 192.83000000
-0.87258006 1628372.15491821 202.55900000
-1.03276748 1628371.29186260 194.36500000
-1.03802113 1628371.13792301 192.82600000
-0.88392688 1628372.09977069 202.64300000
-1.03520877 1628371.21442850 194.34500000
-1.03489646 1628371.04655979 194.53900000
-1.04420338 1628370.98361235 194.55700000
-1.07345034 1628370.71993524 193.95100000
-1.07573548 1628370.55856679 194.22500000
-1.08151634 1628370.48949015 194.23300000
-1.11336076 1628370.23231330 195.44700000
-1.09035479 1628370.17473964 195.46800000
-1.10841109 1628370.05014442 195.49000000
-1.11694556 1628370.07150239 196.32200000
-1.10544258 1628370.04271556 196.59800000
-1.09950556 1628370.02785784 196.98500000
-1.10247407 1628370.03528670 197.58000000
-1.08800258 1628369.99907102 197.80400000
-1.10788387 1628369.96528146 198.13000000
-1.09081493 1628369.92256552 198.21200000
-1.09919324 1628369.85998914 198.20700000
-1.13994319 1628369.62509886 196.30400000
-1.10553165 1628369.78961283 198.20700000
-1.15518713 1628369.57700913 196.45100000
-1.11428103 1628369.72796505 198.20700000
-1.13477862 1628369.52593573 196.58000000
-1.12265934 1628369.66538867 198.20300000
-1.12806914 1628369.59538343 198.20100000
-1.13774713 1628369.53336459 198.20100000
-1.14612544 1628369.47078820 198.19900000
-1.15190631 1628369.40171157 198.19700000
-1.16028462 1628369.33913518 198.19000000
-1.13987610 1628369.28806178 198.18800000
-1.14658558 1628369.21861408 198.18200000
-1.16334220 1628369.09346131 197.69500000
-1.18124234 1628368.88493173 198.09500000
-1.20173993 1628368.68290240 198.50500000
0.61878243 1628388.63485565 208.51100000
0.59280796 1628388.69985816 202.91700000
0.58442964 1628388.63728178 202.92300000
0.57568027 1628388.57563400 202.93400000
0.56637335 1628388.51268656 202.94000000
0.55799503 1628388.45011017 203.03300000
0.54924566 1628388.38846239 203.04800000
0.56965417 1628388.33738899 203.06500000
0.56127586 1628388.27481261 203.08200000
0.55159788 1628388.21279376 203.09300000
0.54321956 1628388.15021738 203.11500000
0.53484125 1628388.08764100 203.15400000
0.52906038 1628388.01856436 203.18600000
0.51678495 1628387.96304577 203.22700000
0.50840664 1628387.90046939 203.25100000
0.53141260 1628387.84289573 203.25500000
0.52303429 1628387.78031935 203.28700000
0.51465598 1628387.71774296 203.33000000
0.50238054 1628387.66222437 203.32400000
0.49363117 1628387.60057660 203.34800000
0.48525285 1628387.53800021 203.31700000
0.50566137 1628387.48692681 203.20300000
0.49431454 1628387.43177928 203.12100000
0.48463656 1628387.36976044 203.02600000
0.47328974 1628387.31461292 202.86700000
0.46491142 1628387.25203653 202.78900000
0.49401056 1628387.09567081 206.35800000
0.45059609 1628387.20431787 202.26600000
0.46803609 1628387.16067332 202.15100000
0.45835811 1628387.09865448 202.12100000
0.46201000 1628386.92242831 205.98800000
0.44997979 1628387.03607810 202.17300000
0.44160148 1628386.97350171 202.10200000
0.46773211 1628386.82456485 205.61700000
0.43322317 1628386.91092533 202.19500000
0.45545668 1628386.76904626 205.49800000
0.42354518 1628386.84890649 202.20100000
0.44410986 1628386.71389873 205.33900000
0.41516687 1628386.78633010 202.11700000
0.43573154 1628386.65132235 205.24200000
0.40678856 1628386.72375372 202.07200000
0.42438472 1628386.59617482 205.04800000
0.44442217 1628386.54603002 205.07200000
0.43511525 1628386.48308258 205.23100000
0.42361227 1628386.51186940 203.80000000
0.42673694 1628386.42050619 205.36000000
0.41798756 1628386.35885841 205.45700000
0.40960925 1628386.29628203 205.57400000
0.40030233 1628386.23333458 205.68800000
0.38842828 1628386.26305002 204.00500000
0.39452146 1628386.16425795 205.84500000
0.38004997 1628386.20047363 203.90100000
0.41789849 1628386.10575568 206.39900000
0.38301848 1628386.19304477 202.08900000
0.40914911 1628386.04410791 206.48800000
0.38911166 1628386.09425270 203.98100000
0.40077080 1628385.98153152 206.52400000
0.38849537 1628385.92601293 206.53900000
0.38011705 1628385.86343655 206.55400000
0.37136768 1628385.80178877 206.55700000
0.38880768 1628385.75814423 206.55700000
0.36580172 1628385.81571788 202.98800000
0.38042937 1628385.69556784 206.53900000
0.36815394 1628385.64004925 206.43400000
0.35940456 1628385.57840148 206.36000000
0.33639860 1628385.63597513 202.30400000
0.34805773 1628385.52325395 206.27600000
0.32802028 1628385.57339875 202.47700000
0.33967942 1628385.46067757 206.19400000
0.31927091 1628385.51175097 202.58200000
0.36008794 1628385.40960416 206.11300000
0.30996399 1628385.44880352 202.61000000
0.33037250 1628385.39773012 202.50700000
0.32162312 1628385.33608234 202.50500000
0.31324481 1628385.27350596 202.49400000
0.30486650 1628385.21092957 202.51600000
0.29259107 1628385.15541098 202.48300000
0.32710001 1628385.06905050 205.65600000
0.28977871 1628385.07890549 203.15400000
0.27843189 1628385.02375796 202.40100000
0.30737487 1628384.95132659 205.48100000
0.30143785 1628384.96618431 203.58000000
0.26708506 1628384.96861044 202.24000000
0.29305954 1628384.90360792 203.60400000
0.28712252 1628384.91846564 202.13200000
0.25184112 1628384.92052071 200.52900000
0.27781560 1628384.85551819 202.19500000
0.24309175 1628384.85887293 200.58200000
0.26943728 1628384.79294181 202.19200000
0.26068791 1628384.73129403 202.39700000
0.25824662 1628384.65385993 204.16400000
0.25230959 1628384.66871765 202.38600000
0.27828407 1628384.60371513 204.17100000
0.24300267 1628384.60577020 202.33700000
0.25466181 1628384.49304902 202.11500000
0.22030902 1628384.49547515 199.82200000
0.24628350 1628384.43047263 202.10200000
0.21155965 1628384.43382737 199.79100000
0.24050263 1628384.36139600 204.60800000
0.23119571 1628384.29844855 204.60600000
0.19387441 1628384.30830354 199.34100000
0.18512504 1628384.24665576 199.27200000
0.21382279 1628384.00505601 204.47000000
0.20507342 1628383.94340824 204.46400000
0.22548193 1628383.89233483 204.45300000
0.16197125 1628383.88418659 198.40100000
0.18534828 1628383.82568433 202.11000000
0.15563284 1628383.81381028 198.43600000
0.17604136 1628383.76273688 202.10600000
0.14725453 1628383.75123390 198.10600000
0.16729198 1628383.70108910 202.10400000
0.17032758 1628383.35662316 204.20700000
0.16157820 1628383.29497538 204.20500000
0.13575988 1628383.27604354 202.12300000
0.08319464 1628383.23780880 197.03900000
0.12645296 1628383.21309609 202.10800000
0.14686148 1628383.16202269 202.10200000
0.09485378 1628383.12508762 196.75300000
0.12614898 1628382.87698762 204.03500000
0.11777067 1628382.81441123 204.02600000
0.09492087 1628382.78805054 202.17100000
0.08617149 1628382.72640276 201.83000000
0.07686457 1628382.66345531 201.73300000
0.08280159 1628382.64859759 199.49200000
0.09727308 1628382.61238191 202.10600000
0.07405221 1628382.58694982 199.45300000
0.05120241 1628382.56058912 198.15600000
0.08852371 1628382.55073413 202.10000000
0.04542154 1628382.49151248 196.89500000
0.00748395 1628382.33312770 194.82200000
0.00207415 1628382.26312246 194.91200000
0.07396314 1628382.33384709 204.01300000
0.06521376 1628382.27219931 204.01100000
0.08562228 1628382.22112590 204.00700000
-0.03014132 1628382.00687421 194.94900000
-0.03647973 1628381.93649790 195.04800000
-0.04485805 1628381.87392152 194.94000000
0.04784084 1628381.97880677 203.97900000
0.03946253 1628381.91623039 203.98500000
-0.05978968 1628381.65796308 193.36900000
-0.06557054 1628381.58888645 193.38200000
-0.07394885 1628381.52631006 193.37100000
0.01318408 1628381.64512442 202.09100000
0.00480577 1628381.58254804 202.09100000
-0.00487222 1628381.52052920 202.08900000
-0.01325053 1628381.45795281 202.09800000
0.00715798 1628381.40687941 202.10200000
-0.00159139 1628381.34523163 202.10800000
-0.10625340 1628381.01695909 193.95300000
-0.12056874 1628380.96924042 191.94900000
-0.11463172 1628380.95438270 193.96200000
-0.12041258 1628380.88530607 193.96200000
-0.02177667 1628380.97533360 204.00900000
-0.03108359 1628380.91238615 203.99000000
-0.03946190 1628380.84980977 203.99200000
-0.04821128 1628380.78816199 203.98500000
-0.05658959 1628380.72558561 203.98800000
-0.19971641 1628380.32379124 190.46400000
-0.20809472 1628380.26121486 190.45300000
-0.21350453 1628380.19120961 190.35600000
-0.20855486 1628380.00904073 192.90100000
-0.33591052 1628379.57047314 179.36300000
-0.10039712 1628380.24502146 202.08700000
-0.21396466 1628379.93903549 192.90100000
-0.34169138 1628379.50139650 179.49400000
-0.10914650 1628380.18337368 202.08900000
-0.12142193 1628380.12785509 202.08700000
-0.24618014 1628379.68278724 188.98800000
-0.35937662 1628379.37587267 180.09800000
-0.25158994 1628379.61278200 189.01800000
-0.25737080 1628379.54370537 188.85800000
-0.36500133 1628379.22286168 179.77600000
-0.26667773 1628379.48075792 188.86500000
-0.33918301 1628379.24179352 182.15400000
-0.36744262 1628379.14542758 181.74000000
-0.37712060 1628379.08340874 180.10400000
-0.38253040 1628379.01340349 180.13900000
-0.38831127 1628378.94432686 180.14700000
-0.31549367 1628379.01542255 187.54200000
-0.14389234 1628379.59658860 204.00000000
-0.32480059 1628378.95247510 187.57000000
-0.15357032 1628379.53456976 203.99400000
-0.36180957 1628378.79446138 185.52400000
-0.13316181 1628379.48349636 204.00300000
-0.30102218 1628378.97920686 191.84300000
-0.14154012 1628379.42091998 204.00900000
-0.31314145 1628378.83975392 191.74600000
-0.29273294 1628378.78868052 191.75300000
-0.37080418 1628378.56364523 186.59800000
-0.37658505 1628378.49456859 186.64700000
-0.19051222 1628379.03951896 202.10000000
-0.20019020 1628378.97750012 202.08900000
-0.40286350 1628378.22346263 186.66700000
-0.40920191 1628378.15308632 186.67300000
-0.49008550 1628377.85154554 180.06900000
-0.22569621 1628378.79069958 202.08000000
-0.41498277 1628378.08400969 186.67900000
-0.23500313 1628378.72775213 202.08900000
-0.21459461 1628378.67667872 202.08200000
-0.40592108 1628377.97778876 187.24400000
-0.41170195 1628377.90871212 187.23800000
-0.38307128 1628378.00414946 190.83000000
-0.39144959 1628377.94157307 190.82600000
-0.42938718 1628377.78318829 187.50900000
-0.40060035 1628377.79469127 190.64500000
-0.24087306 1628378.40557276 203.99200000
-0.40934973 1628377.73304350 190.67100000
-0.24925138 1628378.34299638 203.98800000
-0.25564854 1628378.10567997 203.99000000
-0.26402685 1628378.04310359 203.99200000
-0.27240516 1628377.98052720 203.98800000
-0.30774531 1628377.81564217 202.09500000
-0.28733679 1628377.76456877 202.10800000
-0.48500167 1628376.99530250 188.28300000
-0.46122326 1628377.02203426 189.83200000
-0.46756167 1628376.95165795 189.83500000
-0.48750171 1628376.75092829 188.61000000
-0.48453320 1628376.74349944 189.61700000
-0.33927740 1628377.39059661 202.07000000
-0.31886889 1628377.33952321 202.07600000
-0.32817581 1628377.27657576 202.07800000
-0.53984371 1628376.29172212 186.64700000
-0.32557836 1628377.27007551 203.98300000
-0.50861559 1628376.38065920 189.12800000
-0.33395668 1628377.20749912 203.98800000
-0.51980626 1628376.24157732 189.09500000
-0.52521606 1628376.17157208 189.11900000
-0.56970697 1628375.85980524 188.56300000
-0.36845728 1628376.78988242 203.99800000
-0.57808528 1628375.79722886 188.58200000
-0.37776420 1628376.72693498 203.99400000
-0.39489189 1628376.60271082 202.05200000
-0.57251932 1628375.78329975 189.52600000
-0.40327021 1628376.54013443 202.06900000
-0.39253968 1628376.42704219 202.08200000
-0.59582927 1628375.50476493 188.29100000
-0.40091799 1628376.36446580 202.08700000
-0.37135871 1628376.46027420 204.33700000
-0.41226481 1628376.30931828 202.07400000
-0.40685501 1628376.37932352 204.10400000
-0.38644650 1628376.32825012 204.14300000
-0.39482481 1628376.26567373 204.17300000
-0.40060568 1628376.19659710 204.03500000
-0.41584962 1628376.14850737 204.26600000
-0.42719644 1628376.09335984 204.35000000
-0.43245009 1628375.93942024 202.07400000
-0.44212807 1628375.87740140 202.07400000
-0.66514280 1628374.83740023 187.53700000
-0.68023058 1628374.70537615 186.67700000
-0.44769403 1628375.89133051 203.97900000
-0.42765658 1628375.84118572 203.99000000
-0.63635597 1628374.84890321 190.53300000
-0.44456936 1628375.79996730 204.38600000
-0.64176577 1628374.77889797 190.52600000
-0.77629104 1628374.01870855 180.11000000
-0.68922519 1628374.47455999 187.22200000
-0.77910339 1628373.94220306 180.04200000
-0.80553800 1628373.75503145 179.53300000
-0.48500699 1628375.39720832 202.10000000
-0.81094780 1628373.68502621 179.57400000
-0.49431391 1628375.33426087 202.10200000
-0.65654124 1628374.47900518 190.98300000
-0.73226027 1628374.07830126 186.63600000
-0.73804113 1628374.00922463 186.63900000
-0.75275786 1628373.87627194 185.77400000
-0.86585693 1628373.31848291 178.64300000
-0.48822073 1628375.23546880 203.99600000
-0.76135108 1628373.73068981 184.70500000
-0.86959789 1628373.24160635 178.64700000
-0.49697011 1628375.17382102 204.00500000
-0.76472097 1628373.65288464 184.71200000
-0.50534842 1628375.11124464 204.01300000
-0.74703574 1628373.77840847 187.14700000
-0.82869179 1628373.39256227 182.43800000
-0.75244554 1628373.70840323 187.15100000
-0.83691394 1628373.24605154 181.36700000
-0.84325235 1628373.17567523 181.36700000
-0.87806528 1628372.92592724 179.20500000
-0.71246805 1628373.85898809 191.55200000
-0.89222445 1628372.79427422 178.53100000
-0.52272134 1628374.81785210 203.98500000
-0.71824891 1628373.78991145 191.57200000
-0.53239933 1628374.75583326 203.99200000
-0.54603129 1628374.53931728 202.07400000
-0.55570927 1628374.47729844 202.08700000
-0.56408758 1628374.41472205 202.08900000
-0.74400015 1628373.43394253 192.06300000
-0.59052219 1628374.22755044 202.10600000
-0.74978101 1628373.36486590 192.08200000
-0.79983788 1628373.06702817 188.60600000
-0.59890051 1628374.16497406 202.11000000
-0.57886305 1628374.11482926 202.11500000
-0.81384090 1628372.85144080 189.27000000
-0.82314782 1628372.78849335 189.25900000
-0.76183320 1628372.88837587 192.56700000
-0.60773896 1628373.85022355 203.99800000
-0.76761407 1628372.81929924 192.58200000
-0.58770150 1628373.80007876 204.00700000
-0.59607982 1628373.73750237 204.00100000
-0.82345180 1628372.45238487 190.02000000
-0.83183011 1628372.38980849 190.05000000
-0.61673356 1628373.61940740 203.99000000
-0.62548294 1628373.55775962 203.99800000
-0.67164269 1628373.25286410 202.10600000
-0.80601180 1628372.40874033 193.16200000
-0.62220211 1628373.38246206 203.98100000
-0.68002100 1628373.19028772 202.09100000
-0.81439011 1628372.34616395 193.18400000
-0.63150903 1628373.31951461 203.98800000
-0.65998355 1628373.14014292 202.08200000
-0.63988735 1628373.25693822 203.99200000
-0.66929047 1628373.07719547 202.14300000
-0.64863672 1628373.19529045 203.99400000
-0.67766878 1628373.01461909 202.10200000
-0.65701504 1628373.13271406 203.98800000
-0.68641816 1628372.95297131 202.15100000
-0.66632196 1628373.06976661 203.99200000
-0.69479647 1628372.89039493 202.10400000
-0.67766878 1628373.01461909 203.99000000
-0.70410339 1628372.82744748 202.09100000
-0.86100999 1628371.78909430 191.47300000
-0.65466282 1628372.95704543 203.99800000
-0.71285277 1628372.76579970 202.09100000
-0.86641979 1628371.71908906 191.43200000
-0.66600964 1628372.90189791 204.00000000
-0.69244425 1628372.71472630 202.08200000
-0.85522913 1628371.85817094 193.61900000
-0.67438796 1628372.83932152 204.00100000
-0.70082257 1628372.65214991 202.08200000
-0.68406594 1628372.77730268 204.00100000
-0.70660343 1628372.58307328 202.08700000
-0.69244425 1628372.71472630 204.00100000
-0.71591035 1628372.52012583 202.05000000
-0.70082257 1628372.65214991 204.00300000
-0.70920088 1628372.58957353 204.00700000
-0.68916343 1628372.53942873 204.00900000
-0.69847035 1628372.47648129 204.00500000
-0.70981717 1628372.42133376 204.00700000
-0.71559804 1628372.35225712 204.00700000
-0.72694486 1628372.29710960 204.01300000
-0.73625178 1628372.23416215 204.01400000
-0.74463010 1628372.17158577 204.00700000
-0.72459264 1628372.12144097 204.00300000
-0.73297096 1628372.05886459 204.00100000
-0.74134927 1628371.99628820 204.00100000
-0.75102725 1628371.93426936 203.99600000
-0.75940557 1628371.87169298 203.99200000
-0.76778388 1628371.80911659 203.99000000
-0.77653326 1628371.74746882 203.95700000
-0.78287167 1628371.67709251 203.92300000
-0.76246315 1628371.62601910 203.92300000
-0.77121253 1628371.56437133 203.91000000
-0.80244065 1628371.47543425 203.73300000
-0.80915012 1628371.40598655 203.64500000
-0.78874161 1628371.35491314 203.66900000
-0.80008843 1628371.29976562 203.69200000
-0.81180632 1628371.24554670 203.80400000
-0.82315314 1628371.19039917 203.84800000
-0.80274463 1628371.13932577 203.89300000
-0.83511626 1628370.96701188 202.36700000
-0.81502006 1628371.08380718 203.95300000
-0.84646308 1628370.91186435 202.43400000
-0.82339837 1628371.02123080 203.93600000
-0.96895815 1628370.03802515 195.42900000
-0.84129851 1628370.81270122 202.61500000
-0.97733646 1628369.97544876 195.47700000
-0.84967682 1628370.75012483 202.64500000
-0.96302113 1628370.02316743 196.40400000
-0.86399216 1628370.70240617 202.73300000
-0.87237047 1628370.63982978 202.80200000
-0.96598964 1628370.03059629 197.61300000
-0.85530153 1628370.59711384 202.87500000
-0.97177050 1628369.96151965 197.58500000
-0.86757696 1628370.54159526 202.95500000
-0.98076511 1628369.73070350 196.10800000
-0.88189230 1628370.49387659 203.05200000
-0.96880199 1628369.95409079 198.55400000
-0.98914342 1628369.66812711 196.12600000
-0.89027061 1628370.43130020 203.07800000
-0.96286497 1628369.93923307 198.95500000
-0.95433050 1628369.91787511 199.30400000
-0.94839348 1628369.90301739 199.69700000
-0.95974030 1628369.84786986 199.76800000
-0.95494679 1628369.74963534 199.42700000
-0.93095347 1628369.85937284 200.84300000
-0.96035659 1628369.67963009 199.36000000
-0.93970285 1628369.79772507 200.85400000
-0.96613746 1628369.61055346 199.34100000
-0.94900977 1628369.73477762 200.85200000
-0.95182212 1628369.65827212 200.75100000
-0.99813803 1628369.43731096 199.49800000
-1.00651634 1628369.37473457 199.51800000
-0.98647889 1628369.32458978 199.52900000
-1.04711013 1628369.05590994 197.50100000
-0.99485720 1628369.26201339 199.53100000
-1.03263864 1628369.01969426 197.63600000
-1.00156668 1628369.19256569 199.53700000
-1.05085109 1628368.97903339 197.86300000
-1.00994499 1628369.12998931 199.54100000
-1.01832330 1628369.06741292 199.54400000
-1.02707268 1628369.00576515 199.54400000
-1.03341109 1628368.93538884 199.54100000
-1.04178940 1628368.87281246 199.53500000
-1.05053878 1628368.81116468 199.53500000
-1.05891709 1628368.74858830 199.52900000
-1.03554007 1628368.69008603 199.53300000
-1.04521805 1628368.62806719 199.52600000
-1.05640872 1628368.48898531 198.93800000
-1.06852799 1628368.34953237 199.34800000
-1.09106548 1628368.15530297 199.75900000
0.76661369 1628388.68531276 208.57200000
0.75823537 1628388.62273638 208.56100000
0.66226399 1628388.18917151 203.09700000
0.67970399 1628388.14552696 203.12300000
0.67392313 1628388.07645033 203.15400000
0.66554482 1628388.01387394 203.17100000
0.65623789 1628387.95092650 203.22500000
0.64748852 1628387.88927872 203.25000000
0.63911021 1628387.82670234 203.26600000
0.63073189 1628387.76412595 203.27400000
0.62105391 1628387.70210711 203.30400000
0.64146242 1628387.65103371 203.35200000
0.63308411 1628387.58845732 203.38400000
0.62470580 1628387.52588094 203.38400000
0.61595642 1628387.46423316 203.42100000
0.60664950 1628387.40128571 203.44400000
0.59827119 1628387.33870933 203.46800000
0.58952181 1628387.27706155 203.49800000
0.60993032 1628387.22598815 203.50500000
0.60155201 1628387.16341176 203.51400000
0.59187403 1628387.10139292 203.52600000
0.57199273 1628387.06760337 202.59800000
0.56324336 1628387.00595559 202.57200000
0.55486504 1628386.94337920 202.46600000
0.57450111 1628386.80800038 205.63000000
0.57230505 1628386.89973466 202.40100000
0.56299813 1628386.83678721 202.31700000
0.55424875 1628386.77513943 202.21000000
0.57184491 1628386.64756054 205.23500000
0.54587044 1628386.71256305 202.16000000
0.56049809 1628386.59241301 205.05400000
0.53452361 1628386.65741553 202.14500000
0.55119117 1628386.52946556 205.07000000
0.52521669 1628386.59446808 202.07400000
0.54281285 1628386.46688918 205.07200000
0.51646732 1628386.53282030 202.03300000
0.53406348 1628386.40524140 205.08900000
0.55447199 1628386.35416800 205.06700000
0.52849752 1628386.41917051 202.08700000
0.54312517 1628386.29902047 205.13400000
0.51974814 1628386.35752274 202.13200000
0.53641569 1628386.22957277 205.15600000
0.52506887 1628386.17442525 205.16200000
0.50206291 1628386.23199890 202.06700000
0.51669056 1628386.11184886 205.17300000
0.49331353 1628386.17035113 202.09300000
0.50831224 1628386.04927248 205.16700000
0.48493522 1628386.10777474 202.08200000
0.50534373 1628386.05670134 202.10000000
0.49603681 1628385.99375389 202.10600000
0.49322446 1628385.91724840 203.16000000
0.48484615 1628385.85467201 203.02000000
0.47609677 1628385.79302423 203.01300000
0.46085283 1628385.74493450 202.30200000
0.45544302 1628385.67492926 202.40800000
0.49588899 1628385.57371106 206.26800000
0.44669365 1628385.61328148 202.49400000
0.48751068 1628385.51113468 206.24800000
0.46710216 1628385.56220808 202.44500000
0.47616385 1628385.45598715 206.15800000
0.45575534 1628385.50706055 202.38200000
0.46648587 1628385.39396831 206.09300000
0.45810756 1628385.33139193 206.00000000
0.44066755 1628385.37503647 202.50900000
0.44676073 1628385.27624440 205.92700000
0.42932073 1628385.31988894 202.53900000
0.46716925 1628385.22517100 205.86000000
0.42094242 1628385.25731256 202.60600000
0.45841987 1628385.16352322 205.75100000
0.41423294 1628385.18786486 202.61700000
0.44614444 1628385.10800463 205.63400000
0.43167295 1628385.14422032 202.59300000
0.43776613 1628385.04542825 205.64100000
0.42626314 1628385.07421507 203.19500000
0.42641930 1628384.99028072 205.51400000
0.41751377 1628385.01256730 203.18600000
0.41766992 1628384.92863294 205.51400000
0.40913545 1628384.94999091 203.54200000
0.40616694 1628384.95741977 202.21800000
0.39686002 1628384.89447232 202.22200000
0.38848171 1628384.83189594 202.23500000
0.38254469 1628384.84675366 200.52200000
0.37973233 1628384.77024816 202.09700000
0.37416638 1628384.78417727 200.50900000
0.39732849 1628384.64266926 204.21000000
0.38802157 1628384.57972181 204.22700000
0.36517177 1628384.55336112 199.85400000
0.35939090 1628384.48428448 199.86500000
0.35398110 1628384.41427924 202.11000000
0.37995557 1628384.34927672 204.61000000
0.37064865 1628384.28632928 204.54400000
0.32998778 1628384.30454173 199.31300000
0.32457798 1628384.23453649 199.25300000
0.34217414 1628384.10695759 204.46200000
0.36258265 1628384.05588419 204.49200000
0.35290467 1628383.99386535 204.48500000
0.30439271 1628383.86463845 202.09700000
0.27170876 1628383.86019327 198.47500000
0.32443016 1628383.81449366 202.09500000
0.31512324 1628383.75154621 202.10000000
0.28633641 1628383.74004323 198.05900000
0.27795810 1628383.67746684 198.00500000
0.27224431 1628383.27135313 204.17700000
0.22227652 1628383.22661813 197.10200000
0.29265283 1628383.22027972 204.17300000
0.26553484 1628383.20190543 202.11000000
0.21389821 1628383.16404175 196.73800000
0.25715653 1628383.13932904 202.11000000
0.24877822 1628383.07675266 202.10200000
0.24519341 1628382.91594175 203.94200000
0.23681510 1628382.85336536 204.03900000
0.23400274 1628382.77685987 202.11000000
0.22562443 1628382.71428348 201.72700000
0.21891496 1628382.64483578 200.74400000
0.20756813 1628382.58968826 202.10400000
0.18471833 1628382.56332756 199.49000000
0.19028429 1628382.54939845 198.16000000
0.19622131 1628382.53454073 202.10000000
0.18784300 1628382.47196435 202.09100000
0.11815007 1628382.30950544 194.95700000
0.22272300 1628382.38467526 203.99600000
0.11144059 1628382.24005774 194.82200000
0.21304502 1628382.32265642 204.00300000
0.20466671 1628382.26008003 203.99400000
0.10931162 1628381.99475494 195.05400000
0.10260214 1628381.92530724 194.94700000
0.09422383 1628381.86273085 194.93200000
0.18729379 1628381.96668749 203.97900000
0.17854441 1628381.90503972 203.99000000
0.17016610 1628381.84246333 203.99000000
0.05050538 1628381.63526944 193.35200000
0.04509557 1628381.56526419 193.42500000
0.13222851 1628381.68407855 202.08200000
0.12347913 1628381.62243078 202.08000000
0.11417221 1628381.55948333 202.06900000
0.11745303 1628381.38418576 202.08700000
0.10907472 1628381.32160938 202.08900000
0.09976780 1628381.25866193 202.07400000
-0.00990262 1628380.94561817 191.90600000
-0.00136815 1628380.92426020 193.94500000
0.01904036 1628380.87318679 193.94700000
0.10023627 1628381.00685887 203.98800000
0.08796084 1628380.95134028 203.98500000
0.08217997 1628380.88226364 203.99200000
0.09124167 1628380.77604272 203.99000000
0.08286335 1628380.71346633 203.98800000
-0.06026347 1628380.31167196 190.35600000
-0.07442265 1628380.18001894 190.39300000
0.01567880 1628380.29140445 202.08700000
-0.06910192 1628379.99692146 192.87600000
-0.22561547 1628379.54777949 179.48800000
0.00989793 1628380.22232781 202.09700000
-0.07488278 1628379.92784482 192.84100000
0.03030645 1628380.17125441 202.10000000
-0.08029259 1628379.85783958 192.87800000
0.01803101 1628380.11573582 202.10200000
-0.13551402 1628379.65916499 188.98800000
-0.14129489 1628379.59008835 188.98300000
-0.24892541 1628379.26924467 179.82200000
-0.14763330 1628379.51971205 188.87300000
-0.25433521 1628379.19923942 179.79600000
-0.15341416 1628379.45063541 188.87800000
-0.22554838 1628379.21074240 182.12800000
-0.22539223 1628379.12680805 181.73300000
-0.26645448 1628379.05978648 180.11900000
-0.20575616 1628378.99142923 187.52600000
-0.00481046 1628379.58539794 203.99800000
-0.21153703 1628378.92235260 187.53700000
-0.01411738 1628379.52245049 203.99600000
-0.02249569 1628379.45987410 203.99600000
-0.16156923 1628378.96708759 191.87100000
-0.16827871 1628378.89763989 191.80200000
-0.17368851 1628378.82763465 191.78100000
-0.18243789 1628378.76598687 191.77600000
-0.23172230 1628378.55245456 186.62600000
-0.23713210 1628378.48244932 186.65100000
-0.08952409 1628378.95387787 202.08700000
-0.25503224 1628378.27391974 186.73500000
-0.09790240 1628378.89130148 202.08200000
-0.26044205 1628378.20391450 186.67100000
-0.07786495 1628378.84115669 202.08500000
-0.26715152 1628378.13446680 186.67300000
-0.08624326 1628378.77858030 202.08200000
-0.29265752 1628377.94766625 187.25100000
-0.29899593 1628377.87728995 187.24600000
-0.24361834 1628377.99203018 190.81300000
-0.24939920 1628377.92295355 190.80200000
-0.28733679 1628377.76456877 187.44400000
-0.26151848 1628377.78350061 190.67100000
-0.10720099 1628378.32437685 203.99000000
-0.11854781 1628378.26922933 203.99200000
-0.12692612 1628378.20665294 203.99200000
-0.13660411 1628378.14463410 203.99800000
-0.14498242 1628378.08205772 203.99600000
-0.17667068 1628377.74094651 202.09700000
-0.18542005 1628377.67929873 202.09300000
-0.34888830 1628376.99154069 189.80900000
-0.35429811 1628376.92153544 189.76400000
-0.36845728 1628376.78988242 188.56500000
-0.36548877 1628376.78245356 189.62100000
-0.19144615 1628377.44105372 202.07200000
-0.37219825 1628376.71300586 189.64700000
-0.19982446 1628377.37847734 202.07000000
-0.20950245 1628377.31645850 202.06300000
-0.38957117 1628376.41961333 189.08500000
-0.42954866 1628376.26902847 186.63400000
-0.39498097 1628376.34960808 189.11000000
-0.19450373 1628377.19537985 203.97700000
-0.40076183 1628376.28053145 189.09800000
-0.20325311 1628377.13373207 203.97700000
-0.40617163 1628376.21052621 189.11300000
-0.41288111 1628376.14107851 189.11000000
-0.23806603 1628376.88398408 203.98800000
-0.24644435 1628376.82140769 203.99000000
-0.22900434 1628376.77776315 203.99400000
-0.43603489 1628375.77860933 188.55700000
-0.43306638 1628375.77118047 189.56900000
-0.26418833 1628376.52894376 202.07200000
-0.43884725 1628375.70210384 189.53100000
-0.27349525 1628376.46599631 202.07400000
-0.47678484 1628375.54371906 188.31100000
-0.28187356 1628376.40341993 202.08200000
-0.25231428 1628376.49922833 204.39100000
-0.29062294 1628376.34177215 202.08000000
-0.26199227 1628376.43720949 204.38600000
-0.28765443 1628376.33434330 202.92100000
-0.26183611 1628376.35327513 204.00300000
-0.27874889 1628376.31205672 204.24600000
-0.28156125 1628376.23555122 204.10400000
-0.29383668 1628376.18003263 204.12800000
-0.27639668 1628376.13638809 204.24400000
-0.31340566 1628375.97837437 202.06500000
-0.28514605 1628376.07474031 204.31100000
-0.32011513 1628375.90892667 201.98800000
-0.51434303 1628374.88042848 187.51600000
-0.52272134 1628374.81785210 187.50100000
-0.56659596 1628374.67432503 186.67500000
-0.54359000 1628374.61675138 186.68400000
-0.31402195 1628375.81013460 203.98300000
-0.32277133 1628375.74848682 203.98300000
-0.50268389 1628374.76770730 190.55200000
-0.57018076 1628374.51351412 187.23500000
-0.57559056 1628374.44350888 187.23300000
-0.66843728 1628373.91858080 180.11700000
-0.67124963 1628373.84207531 180.11500000
-0.37267204 1628375.36671475 202.08000000
-0.53749682 1628374.51795931 190.93400000
-0.69768424 1628373.65490370 179.58700000
-0.38105035 1628375.30413836 202.08500000
-0.38942866 1628375.24156198 202.08200000
-0.59020988 1628374.05968174 186.63900000
-0.59561968 1628373.98967650 186.64100000
-0.36657886 1628375.26792268 204.00000000
-0.63652578 1628373.83872057 185.74200000
-0.72083803 1628373.29243452 178.63400000
-0.37792568 1628375.21277515 204.00300000
-0.64864506 1628373.69926763 184.75900000
-0.65442592 1628373.63019099 184.76800000
-0.68086053 1628373.44301938 182.39100000
-0.63340111 1628373.74735736 187.17500000
-0.64011059 1628373.67790966 187.17900000
-0.72420793 1628373.21462936 181.41000000
-0.72998879 1628373.14555272 181.40100000
-0.76183320 1628372.88837587 178.16700000
-0.57041766 1628373.84036857 191.56100000
-0.64239572 1628373.51654121 187.72500000
-0.41860855 1628374.64084779 202.11300000
-0.57582746 1628373.77036332 191.57200000
-0.38997787 1628374.73628512 203.99200000
-0.42735792 1628374.57920001 202.08500000
-0.39872725 1628374.67463735 203.99400000
-0.43666484 1628374.51625257 202.07600000
-0.59357144 1628373.47789939 192.02600000
-0.60194976 1628373.41532301 192.04200000
-0.65107801 1628373.11785634 188.58500000
-0.66075600 1628373.05583750 188.64700000
-0.45981863 1628374.15378339 202.10200000
-0.46819694 1628374.09120701 202.10800000
-0.67141944 1628372.83189267 189.24600000
-0.45990770 1628373.90068066 203.99400000
-0.65153815 1628372.86568222 192.58700000
-0.46865708 1628373.83903288 203.98500000
-0.65694795 1628372.79567698 192.58000000
-0.71278568 1628372.42876262 190.06100000
-0.71856655 1628372.35968598 190.07000000
-0.51184831 1628373.52670851 203.98300000
-0.52059769 1628373.46506073 203.98300000
-0.69534568 1628372.38511807 193.14900000
-0.53797061 1628373.17166819 202.09300000
-0.54727753 1628373.10872074 202.09300000
-0.57278353 1628372.92192020 202.10200000
-0.58246152 1628372.85990136 202.10200000
-0.74774643 1628371.75897180 191.51100000
-0.70684033 1628371.90992772 193.62300000
-0.75612474 1628371.69639541 191.50100000
-0.71317874 1628371.83955141 193.63400000
-0.61399361 1628372.43485580 202.09100000
-0.75658488 1628371.44422129 192.32200000
-0.56715049 1628372.57095400 203.98500000
-0.61940342 1628372.36485056 202.05400000
-0.57942592 1628372.51543542 203.99400000
-0.58520679 1628372.44635878 203.99600000
-0.59655361 1628372.39121125 203.99800000
-0.60493192 1628372.32863487 204.00300000
-0.61460991 1628372.26661603 204.00500000
-0.59420139 1628372.21554262 204.00300000
-0.60257971 1628372.15296624 204.00300000
-0.65186412 1628371.93943393 202.08200000
-0.61095802 1628372.09038986 203.99800000
-0.66061350 1628371.87778616 202.07600000
-0.61970740 1628372.02874208 203.99600000
-0.64020498 1628371.82671275 202.06500000
-0.62901432 1628371.96579463 204.00100000
-0.64858330 1628371.76413637 202.08200000
-0.63739263 1628371.90321825 203.99600000
-0.64614200 1628371.84157047 204.00100000
-0.65452032 1628371.77899409 203.99800000
-0.63708031 1628371.73534954 204.00000000
-0.64378979 1628371.66590184 203.99800000
-0.65513661 1628371.61075432 203.99800000
-0.66054641 1628371.54074907 203.99800000
-0.66929579 1628371.47910130 203.99800000
-0.68157122 1628371.42358271 203.99600000
-0.68994953 1628371.36100632 204.00100000
-0.66954102 1628371.30993292 204.00300000
-0.67829040 1628371.24828514 204.00100000
-0.68666871 1628371.18570876 204.00100000
-0.69597563 1628371.12276131 203.99400000
-0.70472501 1628371.06111353 204.00100000
-0.71310332 1628370.99853715 204.00100000
-0.72148163 1628370.93596076 204.00700000
-0.72803495 1628370.78257871 202.63000000
-0.70144418 1628370.88581597 204.00700000
-0.71075110 1628370.82286852 204.00100000
-0.71912941 1628370.76029213 204.00100000
-0.73047624 1628370.70514461 203.99800000
-0.75691085 1628370.51797300 202.97200000
-0.74853254 1628370.58054938 204.00500000
-0.75081767 1628370.41918093 203.13800000
-0.75956705 1628370.35753315 203.16700000
-0.77481099 1628370.30944342 203.29800000
-0.78615781 1628370.25429590 203.34800000
-0.76574930 1628370.20322249 203.38900000
-0.78006463 1628370.15550383 203.51300000
-0.79141146 1628370.10035630 203.54400000
-0.82996534 1628369.77373175 200.91700000
-0.77397145 1628370.05671175 203.62500000
-0.83834366 1628369.71115536 200.93400000
-0.78364944 1628369.99469291 203.69400000
-0.84709303 1628369.64950759 200.91700000
-0.79796477 1628369.94697425 203.76400000
-0.85250283 1628369.57950234 200.85800000
-0.80931160 1628369.89182672 203.83700000
-0.83574621 1628369.70465511 202.34500000
-0.86218082 1628369.51748350 200.85000000
-0.81830620 1628369.66101057 202.42300000
-0.82965303 1628369.60586304 202.50000000
-0.84099985 1628369.55071552 202.57000000
-0.85327528 1628369.49519693 202.64500000
-0.94002882 1628368.87147678 197.82000000
-0.83583528 1628369.45155238 202.72500000
-0.90209123 1628369.02986156 199.49400000
-0.92852584 1628368.84268995 197.99800000
-0.84718211 1628369.39640486 202.81700000
-0.91436666 1628368.97434297 199.53500000
-0.93987266 1628368.78754242 198.12300000
-0.85889999 1628369.34218594 202.89500000
-0.92311604 1628368.91269519 199.54800000
-0.92540117 1628368.75132674 198.24000000
-0.84145999 1628369.29854139 202.97200000
-0.92852584 1628368.84268995 199.53700000
-0.85577533 1628369.25082273 203.06300000
-0.90811732 1628368.79161655 199.53900000
-0.86508225 1628369.18787528 203.09800000
-0.91686670 1628368.72996877 199.56100000
-0.84764224 1628369.14423073 203.21200000
-0.92617362 1628368.66702132 199.58200000
-0.85898907 1628369.08908321 203.24600000
-0.93455193 1628368.60444494 199.58500000
-0.87330440 1628369.04136454 203.37600000
-0.94033280 1628368.53536830 199.56500000
-0.88465123 1628368.98621701 203.42300000
-0.94871111 1628368.47279192 199.58700000
-0.86461377 1628368.93607222 203.45700000
-0.95801803 1628368.40984447 199.57800000
-0.96379890 1628368.34076783 199.53500000
-0.97217721 1628368.27819145 199.54200000
-0.98092659 1628368.21654367 199.54200000
-0.97576202 1628368.11738054 199.74000000
-0.99829951 1628367.92315113 200.18200000
0.87134278 1628388.67654822 208.67700000
0.67687798 1628386.97490447 203.62300000
0.66720000 1628386.91288563 203.64500000
0.68760851 1628386.86181223 203.65100000
0.67923020 1628386.79923585 203.67700000
0.67085189 1628386.73665946 203.72900000
0.66210251 1628386.67501169 203.75700000
0.65279559 1628386.61206424 203.77000000
0.64441728 1628386.54948785 203.79200000
0.63566790 1628386.48784008 203.80200000
0.65607642 1628386.43676667 203.82600000
0.64769810 1628386.37419029 203.86700000
0.63802012 1628386.31217145 203.89900000
0.62964181 1628386.24959506 203.95700000
0.61829498 1628386.19444754 203.93800000
0.60991667 1628386.13187115 203.97300000
0.60320720 1628386.06242345 204.00100000
0.62064720 1628386.01877891 203.99800000
0.61226889 1628385.95620252 204.02900000
0.60351951 1628385.89455475 204.05000000
0.59514120 1628385.83197836 204.06700000
0.58583428 1628385.76903091 204.08900000
0.57708490 1628385.70738314 204.10800000
0.59749341 1628385.65630973 204.12600000
0.58599043 1628385.68509656 202.54800000
0.58911510 1628385.59373335 204.15800000
0.57761212 1628385.62252018 202.43800000
0.57776828 1628385.53858582 204.19000000
0.56886274 1628385.56087240 202.42900000
0.56809029 1628385.47656698 204.18600000
0.55955582 1628385.49792495 202.37100000
0.55117751 1628385.43534857 202.45300000
0.54242813 1628385.37370079 202.51600000
0.53404982 1628385.31112441 202.66400000
0.55445834 1628385.26005100 202.80900000
0.55925184 1628385.16181648 205.58500000
0.54478035 1628385.19803216 202.95100000
0.55087353 1628385.09924009 205.58900000
0.53937055 1628385.12802692 203.09500000
0.53099224 1628385.06545053 203.23500000
0.53114839 1628384.98151618 205.40800000
0.52224286 1628385.00380276 203.38000000
0.54858840 1628384.93787164 205.32600000
0.51293594 1628384.94085531 203.49800000
0.53891041 1628384.87585280 205.30900000
0.50455763 1628384.87827893 203.61700000
0.53053210 1628384.81327641 205.21400000
0.51918528 1628384.75812889 205.13800000
0.51043590 1628384.69648111 205.04800000
0.50486994 1628384.71041022 202.67300000
0.50112898 1628384.63353366 204.87800000
0.49259451 1628384.65489163 202.75700000
0.48978216 1628384.57838614 204.36500000
0.48140384 1628384.51580975 204.45100000
0.47843533 1628384.52323861 202.85800000
0.46952980 1628384.54552519 199.97900000
0.46708851 1628384.46809108 202.90100000
0.49306298 1628384.40308857 204.60800000
0.45741052 1628384.40607224 202.92700000
0.48078755 1628384.34756998 204.59300000
0.47240924 1628384.28499360 204.57800000
0.46365986 1628384.22334582 204.57000000
0.45528155 1628384.16076944 204.55400000
0.45231303 1628384.16819829 203.08500000
0.47569006 1628384.10969603 204.46200000
0.43165929 1628384.05010332 202.10400000
0.42290991 1628383.98845554 202.10800000
0.38481617 1628383.91400511 198.60400000
0.38809699 1628383.73870755 197.92900000
0.37971868 1628383.67613117 197.93600000
0.33278648 1628383.28693023 197.19700000
0.31862730 1628383.15527721 196.65600000
0.38473543 1628383.15692520 204.10200000
0.30932038 1628383.09232976 196.67100000
0.37635711 1628383.09434882 204.11700000
0.36797880 1628383.03177243 204.08900000
0.34086081 1628383.01339814 202.10400000
0.35570337 1628382.97625384 204.07000000
0.36126933 1628382.96232473 202.08200000
0.34992250 1628382.90717721 204.05700000
0.36736251 1628382.86353266 204.05000000
0.34451270 1628382.83717197 202.12800000
0.33576332 1628382.77552419 202.10800000
0.32645641 1628382.71257674 201.65400000
0.32067554 1628382.64350010 200.60000000
0.29241593 1628382.54713416 198.04200000
0.32380021 1628382.55213689 204.00900000
0.25988814 1628382.45875462 196.72900000
0.34124021 1628382.50849235 204.00500000
0.25707579 1628382.38224913 195.08900000
0.31168093 1628382.41268395 202.10600000
0.24869748 1628382.31967274 195.07400000
0.30033411 1628382.35753642 202.10200000
0.24198800 1628382.25022505 194.69200000
0.23657820 1628382.18021980 194.63900000
0.21945051 1628382.05599564 195.16200000
0.19598441 1628381.86139517 194.88000000
0.26880201 1628381.93249087 202.07400000
0.19057461 1628381.79138993 194.83900000
0.25949509 1628381.86954342 202.08700000
0.25074571 1628381.80789564 202.08500000
0.18105278 1628381.64543674 193.53300000
0.25965125 1628381.78560906 203.99400000
0.17564298 1628381.57543149 193.24800000
0.25127293 1628381.72303268 203.98300000
0.22156583 1628381.20718145 202.10000000
0.13496012 1628381.00350413 194.01600000
0.22750286 1628381.19232374 204.00900000
0.21318752 1628381.14460507 202.07800000
0.08514849 1628380.87483479 191.79600000
0.21912454 1628381.12974735 204.01400000
0.11987234 1628380.87148005 193.85400000
0.04149711 1628380.31033629 190.36900000
0.03571625 1628380.24125965 190.47300000
0.16656764 1628380.58753543 203.98500000
0.15522081 1628380.53238790 203.99000000
0.14591389 1628380.46944045 202.07600000
0.13716452 1628380.40779268 202.08700000
0.12581769 1628380.35264515 202.08000000
0.03562717 1628379.98815692 192.90800000
-0.09766550 1628379.56444704 179.94700000
0.02687780 1628379.92650914 192.90600000
0.02146800 1628379.85650390 192.78900000
-0.11275329 1628379.43242296 180.12600000
-0.03078493 1628379.65040045 188.90400000
-0.11556564 1628379.35591746 180.13900000
0.11141328 1628380.05182375 202.07000000
-0.04009185 1628379.58745300 188.96600000
0.10563242 1628379.98274712 202.08700000
-0.04587272 1628379.51837637 188.92700000
-0.11540949 1628379.27198311 181.89700000
0.09632550 1628379.91979967 202.08000000
-0.12081929 1628379.20197787 181.90400000
-0.12752876 1628379.13253017 181.85600000
0.10501612 1628379.81450735 203.99600000
0.09663781 1628379.75193096 204.00100000
0.11704633 1628379.70085756 203.99800000
-0.10399558 1628378.99009355 187.45700000
-0.10977645 1628378.92101692 187.46400000
-0.11518625 1628378.85101167 187.45700000
-0.11892721 1628378.77413511 185.30200000
-0.05776875 1628378.95795199 191.77900000
-0.12173956 1628378.69762962 185.21400000
0.07051552 1628379.39689065 203.98500000
-0.06651813 1628378.89630421 191.84500000
0.06120859 1628379.33394320 203.99600000
-0.12996172 1628378.55111888 186.65600000
-0.13630013 1628378.48074258 186.66200000
0.02936418 1628379.07676635 202.07400000
-0.14208099 1628378.41166594 186.66900000
0.02061481 1628379.01511857 202.08200000
-0.14749080 1628378.34166070 186.67900000
0.04102332 1628378.96404517 202.08500000
-0.24346218 1628377.90809583 180.10600000
0.02389563 1628378.83982101 202.09800000
-0.24924304 1628377.83901920 180.11000000
0.01458871 1628378.77687356 202.10400000
0.00621040 1628378.71429717 202.10800000
-0.16507862 1628377.96526241 187.30400000
-0.17141703 1628377.89488611 187.33200000
-0.14185775 1628377.99069450 190.74400000
-0.17979534 1628377.83230972 187.42300000
-0.14763862 1628377.92161787 190.75700000
-0.15397703 1628377.85124156 190.75000000
0.00293791 1628378.38561756 203.99600000
-0.00840892 1628378.33047003 203.98500000
-0.01678723 1628378.26789365 203.98500000
-0.02609415 1628378.20494620 203.98500000
-0.03484353 1628378.14329842 203.98500000
-0.08458808 1628377.67759199 202.07800000
-0.24712772 1628376.99020501 189.74400000
-0.09296639 1628377.61501561 202.09700000
-0.22671921 1628376.93913160 189.75300000
-0.07552639 1628377.57137106 202.10000000
-0.25831839 1628376.85112313 189.63900000
-0.23494136 1628376.79262087 189.69200000
-0.28781058 1628376.41827765 189.09800000
-0.32871669 1628376.26732172 186.64500000
-0.29322039 1628376.34827240 189.11000000
-0.29900125 1628376.27919577 189.10200000
-0.30830817 1628376.21624832 189.12100000
-0.11079945 1628377.06944894 203.97900000
-0.31408904 1628376.14717168 189.09800000
-0.11917776 1628377.00687256 203.99000000
-0.12792714 1628376.94522478 203.98800000
-0.32552493 1628375.83892143 188.51600000
-0.33427431 1628375.77727365 188.52200000
-0.33427431 1628375.77727365 189.59800000
-0.33968411 1628375.70726841 189.61000000
-0.17173467 1628376.46466064 202.08900000
-0.34883488 1628375.56038661 188.41200000
-0.18011298 1628376.40208425 202.09100000
-0.16861000 1628376.37329742 202.37600000
-0.15132615 1628376.41358723 203.99000000
-0.17401980 1628376.30329218 202.33900000
-0.16267298 1628376.35843971 204.00300000
-0.17142235 1628376.29679193 204.00900000
-0.19207610 1628376.17869695 202.34100000
-0.18072927 1628376.23384448 204.00700000
-0.18910759 1628376.17126810 204.00500000
-0.41929192 1628374.80964510 187.43800000
-0.42470172 1628374.73963986 187.42700000
-0.44816782 1628374.54503939 186.67900000
-0.40482043 1628374.77342942 190.61500000
-0.23328618 1628375.69163256 203.99000000
-0.41023023 1628374.70342418 190.60800000
-0.46232700 1628374.41338637 186.74800000
-0.21287767 1628375.64055915 203.99000000
-0.42995537 1628374.58570027 190.87600000
-0.57879597 1628373.77779218 180.13000000
-0.43666484 1628374.51625257 190.88200000
-0.58160833 1628373.70128669 180.13200000
-0.24135218 1628375.46118747 204.00100000
-0.58701813 1628373.63128144 180.08000000
-0.25065910 1628375.39824002 204.01300000
-0.48844930 1628374.05834606 186.62600000
-0.26725957 1628375.18915290 202.08900000
-0.49775622 1628373.99539861 186.64100000
-0.27990606 1628375.13456291 202.09500000
-0.54985299 1628373.70536081 184.91000000
-0.52944447 1628373.65428740 184.91200000
-0.57909995 1628373.44168370 182.28300000
-0.50582222 1628373.76495352 187.23800000
-0.51253169 1628373.69550582 187.24800000
-0.59662903 1628373.23222552 181.52400000
-0.32012879 1628374.81480968 202.07600000
-0.60240989 1628373.16314888 181.52400000
-0.64575729 1628372.93475886 178.68400000
-0.30009134 1628374.76466488 202.08000000
-0.30846965 1628374.70208850 202.08200000
-0.65138199 1628372.78174787 178.53100000
-0.47703539 1628373.77645650 191.64500000
-0.48541370 1628373.71388012 191.64700000
-0.30534498 1628374.61072528 203.97200000
-0.31762041 1628374.55520669 203.97900000
-0.32599873 1628374.49263031 203.98800000
-0.49181086 1628373.47656371 191.97500000
-0.56159286 1628373.06100208 188.69900000
-0.56737373 1628372.99192544 188.71000000
-0.56424906 1628372.90056223 189.17100000
-0.35212102 1628374.13758999 203.99400000
-0.38746117 1628373.97270496 202.15800000
-0.36049934 1628374.07501361 203.99400000
-0.37017732 1628374.01299477 204.00100000
-0.55908449 1628372.80139909 192.66600000
-0.56746280 1628372.73882271 192.66400000
-0.58520679 1628372.44635878 190.11500000
-0.59358510 1628372.38378239 190.14100000
-0.43408105 1628373.41563532 202.08200000
-0.41367254 1628373.36456192 202.08700000
-0.42205085 1628373.30198553 202.08500000
-0.58520679 1628372.44635878 193.06900000
-0.59976735 1628372.22947173 190.67700000
-0.39935720 1628373.41228058 203.98500000
-0.60554822 1628372.16039510 190.70100000
-0.41070402 1628373.35713306 203.98800000
-0.41908234 1628373.29455667 203.98800000
-0.46326093 1628372.81492113 202.08900000
-0.65155181 1628371.77156523 191.58000000
-0.47163924 1628372.75234475 202.09700000
-0.48001756 1628372.68976836 202.09300000
-0.61735518 1628371.85307345 193.66700000
-0.62276498 1628371.78306821 193.70500000
-0.45123073 1628372.70127134 203.99600000
-0.64904343 1628371.51196225 192.21600000
-0.45998011 1628372.63962357 204.00500000
-0.46928703 1628372.57667612 204.00900000
-0.65185579 1628371.43545675 194.17500000
-0.66116271 1628371.37250930 194.18800000
-0.69300712 1628371.11533245 192.99600000
-0.49244081 1628372.21420695 203.95700000
-0.54172523 1628372.00067464 202.02200000
-0.67000116 1628371.05775880 193.03100000
-0.50378764 1628372.15905942 203.99400000
-0.52428522 1628371.95703009 202.06700000
-0.51216595 1628372.09648304 203.99400000
-0.53563205 1628371.90188257 202.11300000
-0.70184557 1628370.80058194 193.73500000
-0.68400418 1628370.84217142 194.71000000
-0.57622584 1628371.58305794 202.11000000
