-0.31276310 743009.37392307 83.64700000
-0.60611710 743009.58259369 77.23700000
-0.26045938 743009.25940529 85.58300000
-0.63611548 743009.52661961 77.25000000
-0.28987812 743009.20424609 85.59500000
-0.58893623 743009.41697419 79.05700000
-0.31987650 743009.14827201 85.59700000
-0.57986241 743009.29516423 80.27700000
-0.37378308 743009.07248889 85.61100000
-0.54572112 743009.19479306 81.81600000
-0.61580013 743009.24464215 80.27700000
-0.51215946 743009.09360702 83.32800000
-0.57571950 743009.13881898 81.80500000
-0.45275713 743008.97526699 85.28600000
-0.54239308 743009.03902745 83.32200000
-0.58639618 743009.07032805 82.38300000
-0.48275551 743008.91929291 85.30700000
-0.50647014 743008.86007622 85.59700000
-0.55443738 743008.77884111 85.59700000
-1.00510340 743009.06136923 76.13900000
-0.83138372 743008.86048500 80.58300000
-1.03510178 743009.00539516 76.15000000
-0.62037348 743008.67234495 85.60100000
-0.86732144 743008.80996292 80.54100000
-0.65037186 743008.61637088 85.61200000
-0.77021454 743008.43409160 85.58000000
-0.80102779 743008.37869717 85.59700000
-0.83696551 743008.32817509 85.59600000
-0.94433508 743008.36528000 83.58500000
-0.87348287 743008.27683814 85.52400000
-0.97375382 743008.31012080 83.62500000
-0.97849116 743008.23617787 84.34300000
-1.00790990 743008.18101866 84.36900000
-1.10247675 743008.21024384 82.64900000
-1.13247513 743008.15426976 82.69600000
-1.20255414 743008.20411886 81.17500000
-1.29060201 743008.22870691 79.62700000
-1.25052138 743008.12288374 81.22200000
-1.32060040 743008.17273283 79.70800000
-1.40058288 743008.11549821 79.09200000
-1.43058126 743008.05952414 79.08300000
-1.55040915 743008.10671818 76.77400000
-1.58692651 743008.05538122 76.81400000
-1.70675440 743008.10257526 74.53100000
-1.75472164 743008.02134015 74.59700000
-1.88758748 743008.07780843 72.04100000
-1.78414038 743007.96618094 74.66200000
-1.91700622 743008.02264923 72.09700000
-1.96497346 743007.94141411 72.12000000
-2.07828237 743007.98397102 70.05900000
-2.19868990 743008.03035019 67.72300000
-2.23462762 743007.97982811 67.66600000
-2.28911384 743007.90323012 67.56400000
-2.31853258 743007.84807092 67.59700000
-2.36731469 743007.76741544 67.63200000
-3.16068437 743007.75621035 55.68700000
-2.73706102 743007.57023114 63.88800000
-2.79154724 743007.49363315 63.86100000
-2.81444700 743007.43383683 63.92400000
-2.85019116 743007.34390710 64.35800000
-2.88018954 743007.28793303 64.37300000
-2.92757714 743007.20751278 64.37600000
-3.50262961 743007.19441105 55.74300000
-3.55711583 743007.11781306 55.74900000
-3.34194789 743007.00280107 60.10400000
-3.33306763 743006.92039876 60.96500000
-3.38184974 743006.83974329 60.99300000
-3.41126848 743006.78458408 61.02000000
-3.89157533 743006.47337622 56.78900000
-3.93896293 743006.39295598 56.81900000
-3.98693016 743006.31172086 56.86100000
-4.01692855 743006.25574679 56.88800000
-4.13420159 743006.18576799 55.75000000
-4.18158919 743006.10534775 55.75000000
-4.30538122 743006.04000607 54.51200000
-4.31011856 743005.96606314 55.13200000
-4.38986582 743005.90743401 54.52000000
-4.43725342 743005.82701376 54.54700000
-4.46725180 743005.77103969 54.54200000
1.99225462 743013.90827576 73.12500000
1.94999149 743013.82298316 73.35900000
1.92057275 743013.76782396 73.37500000
1.91090450 743013.65934573 74.31800000
1.86864137 743013.57405313 74.46600000
1.83507972 743013.67523918 73.04100000
1.83922263 743013.51889393 74.47200000
1.78473641 743013.44229594 74.48900000
1.75531767 743013.38713673 74.53500000
1.67735205 743013.24992754 74.57300000
1.64141434 743013.19940546 74.62000000
1.59263222 743013.11874999 74.66500000
1.56321349 743013.06359079 74.67700000
1.51524625 743012.98235567 74.67800000
1.32314206 743012.65880972 74.87400000
1.29314368 743012.60283565 74.87400000
1.25720596 743012.55231357 74.89000000
1.20923872 743012.47107845 74.92000000
1.17981998 743012.41591925 75.01200000
1.13185274 743012.33468413 75.01700000
1.10103949 743012.27928970 75.01400000
1.04221679 743012.39844460 72.99800000
1.06510177 743012.22876762 75.02500000
0.99424956 743012.31720948 73.01300000
1.18034152 743011.37980307 84.78600000
1.14382417 743011.32846612 84.79500000
1.07769450 743011.26137761 84.38700000
1.09821820 743011.16946582 85.58300000
1.05025096 743011.08823070 85.59700000
1.01431325 743011.03770862 85.59700000
0.98431487 743010.98173455 85.59400000
0.56780493 743011.39336481 75.38300000
0.51902282 743011.31270934 75.38300000
-0.26424818 743012.13862491 55.57600000
-0.29347336 743012.04405806 55.99200000
0.40569912 743011.12579294 75.45800000
-0.34086096 743011.96363782 56.02800000
0.37570074 743011.06981886 75.47000000
0.66822509 743010.63225457 84.15200000
0.33976302 743011.01929678 75.45400000
0.70178674 743010.53106853 85.59600000
0.63170773 743010.58091762 84.11100000
0.65381950 743010.44983342 85.59900000
-0.32924708 743011.49518172 60.70500000
-0.37721432 743011.41394661 60.72100000
-0.43247374 743011.37594139 60.22200000
-0.70864688 743011.41899251 55.69300000
-0.75603448 743011.33857227 55.69200000
-0.44612091 743010.92545415 64.35000000
-0.80481659 743011.25791679 55.71300000
-0.47553965 743010.87029494 64.35900000
-0.56180589 743010.81630294 63.65000000
-0.88872155 743011.12615960 55.72900000
-0.93668879 743011.04492448 55.71500000
-0.97320614 743010.99358753 55.70100000
-1.02059374 743010.91316729 55.70500000
-0.31628201 743010.21950312 72.98600000
0.19063707 743009.70551961 85.58000000
0.10181600 743009.76870044 83.75800000
-0.37018859 743010.14372000 73.00000000
0.15469936 743009.65499754 85.59300000
0.07239726 743009.71354124 83.77700000
0.12470098 743009.59902346 85.59500000
0.03587990 743009.66220429 83.72000000
0.07079440 743009.52324034 85.59800000
-0.50935297 743009.97395759 72.46000000
0.04079602 743009.46726626 85.59300000
-0.41875025 743009.83219670 75.15200000
-0.53935135 743009.91798351 72.50000000
-0.46613785 743009.75177646 75.20800000
-0.41383414 743009.63725868 77.11400000
-0.49613623 743009.69580238 75.20800000
-0.36013591 743009.52297613 79.01700000
-0.44325288 743009.58209948 77.13200000
-0.40891802 743009.44232066 79.08300000
-0.32401941 743009.30461726 81.58600000
-0.38757945 743009.34982922 80.13800000
-0.28987812 743009.20424609 83.09100000
-0.35343815 743009.24945805 81.62200000
-0.31987650 743009.14827201 83.15300000
-0.26699314 743009.03456911 85.04200000
-0.39334001 743009.08640027 82.68000000
-0.29699152 743008.97859503 85.06800000
-0.32563706 743008.88484305 85.60000000
-0.35563544 743008.82886898 85.59400000
-0.92101967 743008.92424547 76.13800000
-0.75323933 743008.72881324 80.59800000
-0.54199385 743008.53927868 85.60500000
-1.05112501 743008.40319979 79.07100000
-1.08135863 743008.34862023 79.07700000
-1.11787598 743008.29728328 79.07800000
-0.85394072 743008.03345346 85.61000000
-0.96212516 743008.07113801 83.58100000
-1.20178094 743008.16552608 79.05900000
-0.90272283 743007.95279798 85.61000000
-1.01603174 743007.99535489 83.53600000
-0.97672431 743007.92812450 84.71800000
-1.00695792 743007.87354493 84.73700000
-1.05492516 743007.79230982 84.82200000
-1.13722726 743007.85085352 82.95600000
-1.22527513 743007.87544157 81.39600000
-1.19171347 743007.77425553 82.98400000
-1.25608838 743007.82004714 81.44200000
-1.34332138 743007.84405555 79.91600000
-1.30999496 743007.74426402 81.48200000
-1.37355499 743007.78947599 79.96100000
-1.46634020 743007.74012110 79.08200000
-1.49633858 743007.68414703 79.08300000
-1.60964750 743007.72670394 76.98600000
-1.65761473 743007.64546883 77.04100000
-1.77092365 743007.68802574 74.94500000
-1.80034239 743007.63286653 75.01300000
-1.95827571 743007.66789603 72.30300000
-1.84912450 743007.55221106 75.02600000
-1.98769445 743007.61273683 72.33300000
-2.01769283 743007.55676275 72.36100000
-2.14897060 743007.57405863 70.27200000
-2.29545404 743007.63898629 67.40000000
-2.33632266 743007.55392892 67.50200000
-2.35409796 743007.48926024 67.91900000
-2.38351670 743007.43410103 67.94200000
-2.43148393 743007.35286592 68.02700000
-2.85179402 743007.15360621 63.56000000
-2.89976126 743007.07237109 63.56900000
-2.86639317 743007.01059269 64.59700000
-2.91436041 743006.92935758 64.62500000
-2.95087776 743006.87802063 64.65200000
-3.36863301 743006.56158808 61.19300000
-3.42253959 743006.48580496 61.22200000
-3.45253797 743006.42983089 61.22900000
-3.55203572 743006.42452078 59.76900000
-3.50050521 743006.34859577 61.31000000
-3.58203410 743006.36854670 59.78400000
-3.63652032 743006.29194871 59.72200000
-3.91922721 743006.11016365 57.07300000
-4.08209144 743006.11065786 54.60400000
-3.96719445 743006.02892853 57.16700000
-4.01597657 743005.94827306 57.19100000
-4.04539531 743005.89311385 57.22200000
-4.18141042 743005.83646679 55.77700000
-4.22937765 743005.75523168 55.77800000
-4.48504188 743005.47689769 54.57400000
-4.53300912 743005.39566258 54.56200000
1.97761380 743013.72724911 73.18000000
1.93616554 743013.64137687 73.33600000
1.89370885 743013.59549192 73.16000000
1.89133278 743013.44378380 74.43900000
1.86133440 743013.38780972 74.52800000
1.80684819 743013.31121173 74.55300000
1.77742945 743013.25605253 74.55500000
1.74743107 743013.20007845 74.58300000
1.69922860 743013.12023785 74.63800000
1.66923022 743013.06426377 74.66200000
1.61474400 743012.98766578 74.67900000
1.58532526 743012.93250658 74.71900000
1.55532688 743012.87653250 74.75100000
1.50793928 743012.79611226 74.79400000
1.47712603 743012.74071782 74.81400000
1.42263981 743012.66411983 74.82900000
1.39322107 743012.60896063 74.84300000
1.34525383 743012.52772551 74.94000000
1.31583509 743012.47256631 74.94200000
1.27931773 743012.42122936 74.93900000
1.23135049 743012.33999424 74.93300000
1.09432695 743012.32333447 73.02300000
1.06432857 743012.26736039 73.02600000
1.16651558 743011.19819679 84.72600000
1.14303618 743011.13758559 84.95400000
1.09506894 743011.05635047 84.97400000
1.09091124 743010.98322241 85.58500000
1.05439388 743010.93188546 85.59700000
1.00619141 743010.85204485 85.58600000
0.61910021 743011.31883432 75.34700000
0.96967405 743010.80070790 85.58400000
-0.19910007 743012.05424053 55.89500000
-0.24706731 743011.97300542 55.97700000
-0.27730092 743011.91842585 55.98600000
0.42781089 743010.99470873 75.50000000
0.73830410 743010.58240548 84.12500000
0.39781251 743010.93873465 75.50200000
0.75389690 743010.45595840 85.60000000
0.70830572 743010.52643141 84.09100000
0.72389852 743010.39998432 85.59700000
-0.28342068 743011.42331420 60.65900000
-0.31935840 743011.37279212 60.47800000
-0.38036359 743011.30083126 60.25600000
-0.55408327 743011.50171549 55.72900000
-0.60856949 743011.42511750 55.71400000
-0.65653673 743011.34388238 55.72000000
-0.34604352 743010.93157913 64.28800000
-0.68595547 743011.28872318 55.72900000
-0.38256088 743010.88024218 64.29300000
-0.42994848 743010.79982194 64.27600000
-0.49172687 743010.76645384 63.66700000
0.32746706 743009.76158704 85.59100000
0.29152934 743009.71106496 85.59700000
0.26071609 743009.65567052 85.59300000
-0.30010958 743010.09387090 72.99400000
0.20680951 743009.57988740 85.59700000
0.12450741 743009.63843110 83.75000000
-0.45070905 743010.12368364 70.36000000
0.17681113 743009.52391333 85.59600000
-0.40985521 743009.97926770 72.41700000
-0.49867629 743010.04244852 70.41900000
0.14739239 743009.46875412 85.60900000
-0.43927395 743009.92410849 72.44800000
-0.36664010 743009.75708657 75.12000000
-0.48724119 743009.84287338 72.45700000
-0.30723777 743009.63874654 77.08300000
-0.40257782 743009.70656449 75.13500000
-0.34375513 743009.58740959 77.09200000
-0.30290129 743009.44299365 79.08600000
-0.28750206 743009.35595421 80.08300000
-0.25394040 743009.25476817 81.59200000
-0.32401941 743009.30461726 80.09700000
-0.21979911 743009.15439699 83.09400000
-0.30132800 743009.17434792 81.59800000
-0.18546425 743009.01461818 84.94500000
-0.26776635 743009.07316188 83.06900000
-0.21488299 743008.95945897 84.96200000
-0.21962033 743008.88551604 85.59300000
-0.25555805 743008.83499396 85.59100000
-0.86890951 743008.84913534 76.12700000
-0.68316031 743008.67896415 80.58300000
-0.89890790 743008.79316126 76.14700000
-0.46621074 743008.48537210 85.61100000
-0.50214845 743008.43485002 85.61300000
-0.83120495 743008.59160405 79.09900000
-0.86714266 743008.54108197 79.08300000
-0.91510990 743008.45984685 79.08300000
-0.95104762 743008.40932478 79.08400000
-0.78959269 743008.17912202 83.61100000
-1.01127961 743008.29877114 79.11100000
-0.82611005 743008.12778507 83.61500000
-1.06576583 743008.22217315 79.10100000
-0.85552879 743008.07262587 83.62100000
-1.09576421 743008.16619907 79.07000000
-0.91001501 743007.99602788 83.62300000
-0.83264382 743007.90294889 85.59800000
-0.93943375 743007.94086868 83.62500000
-0.86916117 743007.85161194 85.60700000
-0.97595111 743007.88953172 83.57800000
-0.89857991 743007.79645273 85.59700000
-1.00536985 743007.83437252 83.59700000
-0.98484615 743007.74246073 84.82000000
-1.01426489 743007.68730152 84.89000000
-1.11593036 743007.72034895 83.00000000
-1.04426327 743007.63132745 84.97100000
-1.15186807 743007.66982687 83.04000000
-1.23339697 743007.68977780 81.50300000
-1.26991433 743007.63844085 81.53500000
-1.35144322 743007.65839178 79.99600000
-1.38796058 743007.60705483 80.03600000
-1.48016615 743007.55851482 79.07900000
-1.58753572 743007.59561973 77.03500000
-1.51016453 743007.50254074 79.05600000
-1.61695446 743007.54046053 77.06900000
-1.74962674 743007.55752117 75.01300000
-1.67144068 743007.46386254 77.08600000
-1.77904548 743007.50236197 75.07900000
-1.80904387 743007.44638789 75.15200000
-1.96558267 743007.48165262 72.37700000
-2.00210003 743007.43031567 72.40600000
-2.27928160 743007.51335408 67.30100000
-2.05030250 743007.35047507 72.40500000
-2.33376782 743007.43675609 67.29000000
-2.33198618 743007.35817603 67.97400000
-2.36140492 743007.30301682 68.04500000
-2.41589114 743007.22641883 68.05700000
-2.82138163 743006.93930481 64.55400000
-2.85080037 743006.88414561 64.63400000
-2.89958248 743006.80349014 64.70800000
-2.92900122 743006.74833093 64.73000000
-3.05849735 743006.68704674 63.33100000
-3.35246057 743006.43595587 61.22600000
-3.40042781 743006.35472076 61.26300000
-3.43042619 743006.29874668 61.30500000
-3.48433277 743006.22296356 61.33300000
-3.57296028 743006.24673674 59.71500000
-3.62034788 743006.16631650 59.69400000
-4.01853141 743006.06544589 54.65800000
-3.92160328 743005.95845552 57.18000000
-4.06649864 743005.98421077 54.65200000
-3.95160166 743005.90248145 57.20800000
-3.99980413 743005.82264085 57.29100000
-4.26769144 743005.55300147 55.78400000
-4.31565868 743005.47176636 55.84700000
-4.42877402 743005.47491563 54.06200000
-4.48268060 743005.39913251 53.99300000
-4.49393692 743005.32982670 54.47200000
-4.51683668 743005.27003037 54.56700000
-4.57132290 743005.19343238 54.56900000
2.06724975 743013.66348865 73.08300000
2.04295548 743013.60345709 73.27900000
1.99556788 743013.52303684 73.29300000
1.95253154 743013.47633702 73.08300000
1.95015548 743013.32462889 74.46100000
1.91659382 743013.42581494 73.03500000
1.92073674 743013.26946969 74.56900000
1.87276950 743013.18823458 74.57700000
1.83625214 743013.13689762 74.57800000
1.81335238 743013.07710130 74.66600000
1.75886616 743013.00050331 74.68400000
1.72863255 743012.94592374 74.69400000
1.68066531 743012.86468863 74.71900000
1.65066693 743012.80871455 74.76000000
1.61472921 743012.75819247 74.79100000
1.56676197 743012.67695736 74.84700000
1.53734323 743012.62179815 74.87500000
1.48856112 743012.54114268 74.88200000
1.45204376 743012.48980573 74.88800000
1.20763586 743012.28077756 73.01300000
1.15314964 743012.20417957 73.01400000
1.20659621 743011.09237362 84.34400000
1.20243851 743011.01924556 85.01500000
1.17244013 743010.96327148 85.03500000
1.14973393 743010.86406751 85.59700000
0.76322237 743011.33167184 75.37000000
1.11379621 743010.81354543 85.59700000
1.08379783 743010.75757135 85.59700000
1.04786012 743010.70704927 85.58700000
-0.09231014 743012.01632075 55.90900000
-0.14027738 743011.93508563 55.92800000
0.54111981 743010.95215182 75.51200000
0.83364415 743010.51458753 84.11100000
0.48663359 743010.87555383 75.52300000
0.86720581 743010.41340149 85.59700000
0.79712680 743010.46325058 84.07200000
-0.14011339 743011.43673137 60.61800000
0.81271959 743010.33680350 85.59900000
-0.16953213 743011.38157216 60.64500000
-0.23705630 743011.31424842 60.29100000
-0.27357366 743011.26291147 60.19400000
-0.46526220 743011.43853466 55.73600000
-0.51322944 743011.35729954 55.71400000
-0.54322781 743011.30132547 55.72100000
-0.23925359 743010.89365934 64.26300000
-0.59713439 743011.22554235 55.68700000
-0.28722083 743010.81242423 64.28100000
-0.34841958 743010.77987101 63.73400000
0.50077273 743009.83097828 85.59500000
0.45280549 743009.74974316 85.58600000
0.41628813 743009.69840621 85.59200000
0.35171966 743009.78360546 83.77200000
0.38686939 743009.64324701 85.58600000
0.30375242 743009.70237035 83.77500000
-0.15656705 743010.10589356 72.95800000
-0.20395465 743010.02547331 72.98600000
0.23781632 743009.59587419 83.75000000
-0.35536900 743010.05586569 70.38800000
0.26644708 743009.46015286 85.58000000
-0.29596666 743009.93752566 72.41400000
-0.39130671 743010.00534361 70.38800000
0.23621346 743009.40557330 85.59700000
-0.22903692 743009.77456122 75.00200000
-0.35045288 743009.86092767 72.43000000
-0.25985017 743009.71916678 75.08300000
-0.21760182 743009.57498607 77.06300000
-0.30723777 743009.63874654 75.10700000
-0.16529810 743009.46046829 79.01300000
-0.25411918 743009.52364912 77.07100000
-0.19471684 743009.40530909 79.08100000
-0.13512095 743009.24756142 81.52100000
-0.19868098 743009.29277338 80.05300000
-0.09504032 743009.14173825 83.01400000
-0.16511933 743009.19158734 81.55500000
-0.04786107 743009.03209283 84.84700000
-0.12445906 743009.08657904 83.07200000
-0.07785944 743008.97611875 84.91300000
-0.13335410 743008.93950805 84.44300000
-0.13079926 743008.82233521 85.58600000
-0.16021800 743008.76717601 85.56700000
-0.62766566 743008.71557485 79.08000000
-0.76130471 743008.81063591 76.13400000
-0.58782026 743008.61114620 80.59300000
-0.65789927 743008.66099529 79.08200000
-0.81008682 743008.72998044 76.13900000
-0.37657479 743008.42161163 85.59900000
-0.69441663 743008.60965834 79.05600000
-0.41251251 743008.37108955 85.60900000
-0.74238387 743008.52842322 79.08100000
-0.77180261 743008.47326402 79.09700000
-0.58605341 743008.30309283 83.59700000
-0.80831997 743008.42192707 79.10900000
-0.61605179 743008.24711875 83.60000000
-0.85570757 743008.34150682 79.08400000
-0.65198951 743008.19659667 83.60500000
-0.89222493 743008.29016987 79.07200000
-0.69995675 743008.11536156 83.60600000
-1.23847708 743008.38307009 72.92800000
-0.73647411 743008.06402461 83.60000000
-1.28644431 743008.30183497 72.97200000
-0.76589285 743008.00886540 83.60900000
-1.31586305 743008.24667577 72.99000000
-0.79670610 743007.95347097 83.61000000
-1.34667631 743008.19128133 73.00000000
-0.85061267 743007.87768785 83.61400000
-0.77300625 743007.78321435 85.59600000
-0.88061106 743007.82171377 83.60100000
-0.80894397 743007.73269227 85.59900000
-0.91654877 743007.77119169 83.55500000
-0.83975722 743007.67729783 85.59700000
-0.92544381 743007.62412070 84.90500000
-0.95544219 743007.56814662 84.98800000
-1.05571315 743007.60142928 83.05300000
-0.98486093 743007.51298742 85.01300000
-1.08652640 743007.54603485 83.08500000
-1.17457427 743007.57062290 81.53100000
-1.20399301 743007.51546370 81.59700000
-1.29262053 743007.53923688 80.05700000
-1.32203927 743007.48407767 80.08100000
-1.42134346 743007.43935992 79.09700000
-1.52813339 743007.47727970 77.06700000
-1.55813177 743007.42130563 77.11100000
-1.68370543 743007.43454402 75.10500000
-1.71370381 743007.37856994 75.16600000
-1.87676160 743007.41847180 72.38900000
-1.74312255 743007.32341074 75.23000000
-1.90675998 743007.36249772 72.43400000
-1.93617872 743007.30733852 72.45300000
-2.24413187 743007.37299562 67.23400000
-2.24316511 743007.29499520 67.97300000
-2.27258385 743007.23983600 68.05800000
-2.30258223 743007.18386192 68.08200000
-2.75546032 743006.81632766 64.65200000
-3.28331875 743006.92305382 55.73600000
-2.80994654 743006.73972967 64.69400000
-2.83936528 743006.68457046 64.73300000
-2.91576970 743006.69964904 63.37200000
-2.88814739 743006.60391499 64.75000000
-3.31160674 743006.29153993 61.28400000
-3.34160512 743006.23556585 61.31200000
-3.38899272 743006.15514561 61.31900000
-3.48413921 743006.18355592 59.69300000
-3.53152681 743006.10313567 59.65900000
-3.58601302 743006.02653768 59.64300000
-3.92971033 743006.00226506 54.66700000
-3.97767757 743005.92102995 54.67300000
-3.86278058 743005.83930062 57.24100000
-4.12496379 743005.56560377 55.75600000
-4.17235138 743005.48518352 55.79100000
-4.22031862 743005.40394841 55.86100000
-4.25031700 743005.34797433 55.88800000
-4.37589067 743005.36121272 53.97200000
-4.42385791 743005.27997761 53.96300000
-4.42801561 743005.20684954 54.55300000
-4.48250182 743005.13025155 54.56000000
2.00464169 743013.40122688 73.12400000
1.97464331 743013.34525281 73.09700000
1.92073674 743013.26946969 73.06800000
1.92487965 743013.11312444 74.56400000
1.88421938 743013.21813274 73.04100000
1.88836229 743013.06178749 74.55600000
1.86546253 743013.00199116 74.66500000
1.81668042 743012.92133569 74.73600000
1.78016306 743012.86999874 74.74000000
1.73277546 743012.78957850 74.76100000
1.70277708 743012.73360442 74.79100000
1.25974601 743012.20566742 73.02700000
1.20525980 743012.12906943 73.03800000
0.89923749 743011.38831891 75.37300000
1.18625129 743010.91540446 84.25300000
0.86923910 743011.33234483 75.38900000
1.15625291 743010.85943038 84.22000000
1.12031519 743010.80890830 84.19800000
1.12287003 743010.69173547 85.30400000
-0.01730022 743012.00100694 55.72200000
1.08693231 743010.64121339 85.31900000
-0.04671896 743011.94584774 55.72800000
1.05118816 743010.55128367 85.59700000
-0.10120518 743011.86924975 55.70800000
1.01467080 743010.49994671 85.59500000
0.98525206 743010.44478751 85.59700000
0.59322996 743010.87704169 75.56600000
0.87865569 743010.44329965 84.06300000
-0.04655497 743011.44749347 60.51100000
0.91931596 743010.33829136 85.60600000
-0.10104119 743011.37089548 60.45100000
0.88279860 743010.28695441 85.52700000
-0.13755855 743011.31955853 60.35400000
0.76947491 743010.10003801 85.59200000
-0.11546156 743010.95900102 64.15500000
0.73866165 743010.04464357 85.59600000
-0.16342880 743010.87776590 64.17500000
0.70272394 743009.99412149 85.59300000
0.62694082 743010.04802807 83.86200000
-0.20588549 743010.83188095 63.87200000
0.67272556 743009.93814742 85.59200000
0.59042346 743009.99669112 83.85600000
0.55448574 743009.94616904 83.83700000
-0.20808278 743010.41129187 67.81300000
-0.26256900 743010.33469388 67.82200000
-0.31724878 743010.29750353 67.31900000
-0.10445690 743010.03078343 72.98300000
-0.23239184 743010.12178700 70.28800000
-0.37173499 743010.22090554 67.23100000
0.31934522 743009.57592326 83.71900000
-0.15894312 743009.95418543 72.98600000
-0.10605976 743009.84048253 74.86200000
-0.22095675 743009.92221186 72.31700000
0.34223019 743009.40624628 85.61300000
-0.15402700 743009.75924741 74.91400000
0.30629248 743009.35572420 85.62200000
-0.08810569 743009.63627026 76.98600000
-0.18344574 743009.70408821 74.94700000
-0.04802506 743009.53044709 78.55400000
-0.12462305 743009.58493331 76.98100000
-0.07725023 743009.43588024 79.08500000
-0.00480994 743009.30826596 81.42000000
-0.06836998 743009.35347793 79.95400000
0.03445582 743009.20302243 82.91400000
-0.03480832 743009.25229189 81.44300000
0.08163507 743009.09337701 84.69700000
-0.00148190 743009.15250036 82.93200000
0.03366783 743009.01214190 84.71900000
-0.00226989 743008.96161982 84.62500000
0.00603073 743008.87840263 85.59300000
-0.29384226 743009.09171038 78.99000000
-0.02420289 743008.82382307 85.58300000
-0.11954294 743008.89164102 83.59700000
-0.34180950 743009.01047526 79.08600000
-0.14954132 743008.83566695 83.59900000
-0.37774721 743008.95995318 79.05500000
-0.20402754 743008.75906896 83.61000000
-0.40774560 743008.90397911 79.08300000
-0.23344627 743008.70390975 83.60800000
-0.75399774 743008.99687932 72.93900000
-0.26996363 743008.65257280 83.61000000
-0.78993546 743008.94635724 72.98400000
-0.29938237 743008.59741360 83.61100000
-0.81993384 743008.89038317 72.99000000
-0.34816448 743008.51675812 83.61000000
-0.70919456 743008.73552578 76.12200000
-0.87384042 743008.81460005 72.97200000
-0.51774125 743008.56129710 80.61100000
-0.74000781 743008.68013134 76.14100000
-0.90383880 743008.75862597 72.97200000
-0.32446464 743008.34650150 85.60100000
-0.95262091 743008.67797050 73.00100000
-0.36040235 743008.29597942 85.61100000
-0.98203965 743008.62281129 73.02700000
-1.01855701 743008.57147434 73.00000000
-1.07246358 743008.49569123 72.98600000
-0.71459756 743007.93433491 83.61100000
-0.75111492 743007.88299796 83.61000000
-0.99077070 743007.97738603 79.05500000
-1.02076908 743007.92141196 79.08300000
-0.81705102 743007.77650181 83.61100000
-0.86501826 743007.69526669 83.61000000
-1.41498847 743007.93307706 72.99900000
-1.46889504 743007.85729394 72.97000000
-1.68386942 743007.93289828 69.04300000
-0.82358478 743007.55166562 85.59700000
-1.17061013 743007.68315861 79.09800000
-1.71328816 743007.87773908 69.04100000
-0.85358316 743007.49569155 85.59900000
-1.22509635 743007.60656062 79.00300000
-0.90806938 743007.41909355 85.59800000
-0.95704506 743007.37784573 85.24600000
-0.98704344 743007.32187165 85.26700000
-1.10035235 743007.36442856 83.23600000
-1.01646218 743007.26671245 85.34400000
-1.12977109 743007.30926936 83.30300000
-1.21839860 743007.33304254 81.72600000
-1.26578620 743007.25262229 81.77800000
-1.33586521 743007.30247139 80.22200000
-1.38383245 743007.22123627 80.25300000
-1.48965562 743007.18115564 79.07300000
-1.58992657 743007.21443830 77.22400000
-1.51907436 743007.12599644 79.05500000
-1.62073982 743007.15904387 77.25900000
-1.72101078 743007.19232653 75.38300000
-1.76897802 743007.11109141 75.43400000
-1.92058592 743007.18089143 72.54400000
-1.79921163 743007.05651185 75.51300000
-1.96936804 743007.10023596 72.59900000
-1.99878678 743007.04507675 72.63700000
-2.25047207 743007.10875179 68.18100000
-2.29843931 743007.02751668 68.23600000
-2.32785805 743006.97235747 68.32200000
-2.40938695 743006.99230840 66.92900000
-2.37664016 743006.89170200 68.34300000
-2.45816906 743006.91165292 66.88800000
-2.49468642 743006.86031597 66.80500000
-3.23772758 743006.85258081 55.76100000
-3.28569482 743006.77134570 55.76200000
-2.78783476 743006.60864546 64.83100000
-2.83603723 743006.52880486 64.86100000
-2.86603561 743006.47283078 64.90000000
-2.91400285 743006.39159567 64.92900000
-3.00856970 743006.42082084 63.19200000
-3.01843151 743006.35175027 63.76900000
-3.08595568 743006.28442653 63.36800000
-3.15347985 743006.21710278 63.02500000
-3.29601394 743006.16509285 61.27700000
-3.35050016 743006.08849486 61.26100000
-3.37339992 743006.02869853 61.43000000
-3.42136716 743005.94746341 61.49300000
-3.45078590 743005.89230421 61.54100000
-3.57693921 743005.90472773 59.54100000
-3.62490644 743005.82349261 59.52600000
-3.66084416 743005.77297053 59.56900000
-3.70881140 743005.69173542 59.60400000
-3.86515665 743005.68759250 57.20100000
-3.94668554 743005.70754343 55.74300000
-3.89457539 743005.63243330 57.31200000
-3.93683852 743005.54714070 57.52500000
-3.96625726 743005.49198149 57.54800000
-4.03378143 743005.42465775 57.21500000
-4.18124643 743005.33811253 55.75700000
-4.21124481 743005.28213845 55.77600000
-4.25269307 743005.19626621 56.06700000
-4.28292668 743005.14168665 56.13800000
-4.48487789 743004.97854343 54.53900000
-4.74054211 743004.70020945 53.40100000
2.01530359 743013.24024451 73.15200000
1.97385533 743013.15437227 73.34700000
1.97641017 743013.03719944 74.50700000
1.92902257 743012.95677920 74.51100000
1.89488127 743013.05715037 73.01500000
1.89250521 743012.90544225 74.49500000
1.85024208 743012.82014965 74.71600000
1.82082334 743012.76499044 74.79100000
1.77285610 743012.68375533 74.80700000
1.74343736 743012.62859612 74.81300000
1.70692000 743012.57725917 74.81900000
1.29330767 743012.10448138 73.02400000
1.24534043 743012.02324627 73.02900000
0.96931650 743011.33846981 75.38300000
0.93931812 743011.28249574 75.39900000
0.14952814 743012.11304844 55.66400000
1.19039420 743010.75905921 84.19400000
0.10156090 743012.03181333 55.75600000
1.15958095 743010.70366477 84.16500000
0.06562318 743011.98129125 55.71500000
1.12364323 743010.65314270 84.15500000
0.01684107 743011.90063577 55.70800000
1.13271705 743010.53133274 85.37000000
-0.03112617 743011.81940066 55.71500000
1.10329831 743010.47617353 85.43400000
1.07329993 743010.42019946 85.59100000
0.07091164 743011.47806463 60.45000000
1.02533269 743010.33896434 85.59700000
0.98939497 743010.28844226 85.59700000
-0.01299332 743011.34630743 60.44200000
0.95939659 743010.23246819 85.59700000
0.92345888 743010.18194611 85.59700000
0.89346050 743010.12597203 85.59800000
0.83955392 743010.05018891 85.59700000
-0.04538255 743010.90915192 64.11400000
0.80874067 743009.99479448 85.59600000
0.75092641 743010.07396210 83.89800000
-0.07480129 743010.85399272 64.13800000
0.69701983 743009.99817898 83.87500000
-0.13580648 743010.78203185 63.90300000
0.66050247 743009.94684203 83.87000000
-0.17232384 743010.73069490 63.84000000
-0.14452275 743010.36607990 67.76300000
-0.17394149 743010.31092070 67.77500000
-0.24716976 743010.24765444 67.36100000
-0.03437789 743009.98093433 72.97400000
-0.14434397 743010.09719895 70.26300000
-0.28368712 743010.19631749 67.27900000
0.40739309 743009.55133521 83.70800000
-0.07031561 743009.93041225 73.00700000
0.37145537 743009.50081313 83.70500000
-0.03598075 743009.79063344 74.83000000
-0.11909772 743009.84975678 73.00100000
0.41230921 743009.35639719 85.59100000
-0.06597913 743009.73465936 74.86200000
0.37637149 743009.30587511 85.59800000
-0.00005782 743009.61168221 76.94100000
0.04079602 743009.46726626 79.02900000
-0.05454403 743009.53508422 76.94400000
0.04315730 743009.38950108 79.80400000
0.06526907 743009.25841687 81.37200000
0.00170904 743009.30362884 79.91400000
0.10453483 743009.15317334 82.87300000
0.03445582 743009.20302243 81.38400000
0.15171408 743009.04352792 84.62600000
0.06859711 743009.10265126 82.87300000
0.11519672 743008.99219097 84.64900000
0.12978108 743008.90573117 85.58400000
0.07529487 743008.82913318 85.58500000
-0.01352621 743008.89231401 83.58500000
-0.04294495 743008.83715481 83.61000000
-0.55204653 743009.16002254 72.99000000
-0.07946231 743008.78581785 83.61100000
-0.58146527 743009.10486334 73.00100000
-0.10888105 743008.73065865 83.61000000
-0.63595149 743009.02826535 73.00100000
-0.66537023 743008.97310614 72.99600000
-0.71333747 743008.89187103 72.99800000
-0.74985483 743008.84053408 73.00000000
-0.77927357 743008.78537487 73.00000000
-0.66992880 743008.63028225 76.13900000
-0.48417960 743008.46011106 80.59700000
-0.26665038 743008.26733389 85.61300000
-0.59631608 743007.96432642 83.59900000
-0.62654969 743007.90974686 83.60900000
-0.67451693 743007.82851174 83.60000000
-0.90272283 743007.95279798 79.05700000
-0.95069007 743007.87156287 79.08300000
-0.77639075 743007.67149351 83.62500000
-1.38084717 743007.83270589 72.96800000
-1.59582155 743007.90831023 69.04400000
-1.10053112 743007.63330952 79.11000000
-1.64320915 743007.82788998 69.04300000
-1.13052950 743007.57733544 79.11000000
-0.81944187 743007.39532037 85.59700000
-1.51271937 743007.61971358 73.00700000
-0.84944025 743007.33934630 85.60900000
-1.54923673 743007.56837662 72.96700000
-0.90392647 743007.26274831 85.60100000
-0.96748650 743007.30796027 84.09900000
-0.94638316 743007.21686335 85.38500000
-0.97638154 743007.16088928 85.41600000
-1.08969045 743007.20344619 83.27700000
-1.00580028 743007.10573007 85.42500000
-1.11992407 743007.14886663 83.38300000
-1.20773671 743007.17206017 81.80900000
-1.16789130 743007.06763151 83.44400000
-1.25593918 743007.09221956 81.86100000
-1.34456669 743007.11599274 80.30500000
-1.37398543 743007.06083354 80.34500000
-1.47899372 743007.02017327 79.09800000
-1.58007955 743007.05403557 77.28900000
-1.51493144 743006.96965119 79.11300000
-1.61007793 743006.99806149 77.33400000
-1.72913262 743007.00666276 75.50300000
-1.75913100 743006.95068868 75.58000000
-1.92870776 743006.99522766 72.65000000
-1.78854974 743006.89552948 75.59900000
-1.95870614 743006.93925359 72.66800000
-2.00609374 743006.85883334 72.70800000
-2.25777904 743006.92250838 68.28500000
-2.28859229 743006.86711394 68.34800000
-2.33597989 743006.78669370 68.41400000
-2.43112638 743006.81510401 66.80100000
-2.46054512 743006.75994480 66.77100000
-2.51503134 743006.68334681 66.70800000
-3.16764857 743006.80273172 55.72000000
-3.20416592 743006.75139477 55.76100000
-2.75369347 743006.50827429 64.80600000
-2.80247558 743006.42761882 64.80700000
-2.82537534 743006.36782249 64.96200000
-2.87986156 743006.29122450 64.98900000
-2.98094739 743006.32508680 63.13100000
-2.90985994 743006.23525042 64.99900000
-3.02891462 743006.24385168 63.08700000
-3.06543198 743006.19251473 63.08300000
-3.11281958 743006.11209449 63.03400000
-3.31635886 743005.98812369 61.19200000
-3.36432610 743005.90688857 61.24300000
-3.38722587 743005.84709224 61.53500000
-3.41722425 743005.79111817 61.55500000
-3.54279791 743005.80435655 59.47900000
-3.46600636 743005.71046269 61.56000000
-3.59728413 743005.72775856 59.45800000
-3.64525137 743005.64652345 59.50700000
-3.66815113 743005.58672712 59.66700000
-3.83101535 743005.58722133 57.17900000
-3.71693324 743005.50607164 59.68700000
-3.85530963 743005.52718977 57.46500000
-3.89617825 743005.44213240 57.56100000
-3.92617663 743005.38615833 57.63000000
-3.99370080 743005.31883459 57.37200000
-4.04760738 743005.24305147 57.20100000
-4.51410307 743004.88397658 53.61800000
-4.50522281 743004.80157427 54.56200000
-4.53522119 743004.74560019 54.55500000
-4.67046310 743004.65036036 53.43600000
-4.70046148 743004.59438628 53.44400000
-4.75436806 743004.51860316 53.34000000
2.10571274 743013.13789127 73.23300000
2.06919538 743013.08655432 73.11900000
2.03325766 743013.03603224 73.09200000
2.03088160 743012.88432412 74.46700000
1.99436424 743012.83298717 74.45600000
1.94877306 743012.90346018 73.08200000
1.94558213 743012.75233170 74.45300000
1.89486649 743012.82767706 72.99600000
1.91123248 743012.66263720 74.79000000
1.88123410 743012.60666313 74.82200000
1.85181536 743012.55150392 74.83700000
1.79732915 743012.47490593 74.85000000
1.76651589 743012.41951150 74.86400000
1.43168406 743012.08336326 73.02900000
1.38371682 743012.00212814 73.03000000
1.35371844 743011.94615406 73.03700000
1.10711325 743011.31653682 75.37000000
1.07769450 743011.26137761 75.37500000
0.28732489 743012.09111544 55.64500000
0.26361025 743012.03189876 55.84700000
0.20912404 743011.95530077 55.76200000
1.26143998 743010.63120970 84.15000000
0.16115680 743011.87406565 55.76300000
1.20753341 743010.55542658 84.12500000
0.10725022 743011.79828253 55.66400000
1.17753502 743010.49945250 84.11100000
1.18660884 743010.37764255 85.47300000
0.20928803 743011.45694650 60.45600000
1.15719010 743010.32248334 85.49400000
0.76516800 743010.75473752 75.54500000
0.17928965 743011.40097243 60.46400000
1.12719172 743010.26650927 85.60000000
1.09777298 743010.21135006 85.60000000
1.06125562 743010.16001311 85.59100000
1.01386803 743010.07959287 85.58700000
0.97735067 743010.02825592 85.57900000
0.91872154 743010.10800317 83.91800000
0.09299384 743010.88803380 64.07200000
0.86481496 743010.03222006 83.89600000
0.05647648 743010.83669685 64.05300000
0.83481658 743009.97624598 83.88800000
0.00199027 743010.76009886 63.96500000
-0.03394745 743010.70957678 63.90800000
-0.00614636 743010.34496178 67.70300000
-0.04266372 743010.29362483 67.70700000
-0.10366891 743010.22166396 67.42600000
0.10399850 743009.95981621 72.95800000
-0.13960663 743010.17114188 67.35900000
0.06748114 743009.90847926 72.97200000
0.49128326 743009.45361910 83.68000000
0.01869903 743009.82782378 72.95500000
0.07239726 743009.71354124 74.79900000
0.51416824 743009.28394212 85.59800000
0.11325109 743009.56912529 76.89600000
0.01791104 743009.63694325 74.80500000
0.48474950 743009.22878291 85.61200000
0.17917241 743009.44614814 79.07000000
0.18095404 743009.36756808 79.79100000
0.20306582 743009.23648387 81.33300000
0.13298680 743009.28633297 79.85700000
0.23720711 743009.13611270 82.80500000
0.16712810 743009.18596179 81.34300000
0.28299185 743009.02623205 84.55700000
0.20639386 743009.08071827 82.84600000
0.25357311 743008.97107285 84.57200000
0.24960897 743008.85853714 85.59600000
0.16078790 743008.92171796 83.63600000
0.21367125 743008.80801506 85.59700000
0.12485018 743008.87119588 83.58500000
0.08833282 743008.81985893 83.59700000
-0.41367015 743009.13890442 72.98700000
-0.44366853 743009.08293034 73.00000000
-0.49757510 743009.00714722 73.00000000
-0.52757348 743008.95117314 73.00700000
-0.58205970 743008.87457515 73.00000000
-0.53155241 743008.60916413 76.11100000
-0.36435171 743008.41291702 80.59300000
-0.58603862 743008.53256614 76.15500000
-0.15252659 743008.22419733 85.54100000
-0.39377045 743008.35775782 80.59500000
-0.18276021 743008.16961777 85.61400000
-0.50672180 743007.86255282 83.60700000
-0.54265952 743007.81203074 83.59600000
-0.78289494 743007.90560394 79.06700000
-0.81231368 743007.85044474 79.05200000
-0.65656286 743007.62429947 83.62100000
-1.20653307 743007.86210984 72.98900000
-0.69308022 743007.57296252 83.61100000
-1.45744516 743007.88719210 69.03500000
-1.50541240 743007.80595699 69.02700000
-0.99867209 743007.56085444 79.08000000
-1.04663933 743007.47961932 79.07900000
-1.37492262 743007.59778058 73.02700000
-1.41086034 743007.54725850 72.99900000
-0.76555008 743007.24163018 85.58500000
-1.67322232 743007.54244260 69.09700000
-0.79554846 743007.18565611 85.59400000
-1.70322070 743007.48646852 69.05800000
-0.83148618 743007.13513403 85.59500000
-0.88597239 743007.05853604 85.51500000
-0.91620601 743007.00395647 85.51300000
-1.03009456 743007.04569851 83.42900000
-1.05951330 743006.99053931 83.46100000
-1.14756117 743007.01512736 81.88500000
-1.18407853 743006.96379041 81.91600000
-1.27212640 743006.98837846 80.34700000
-1.34713631 743007.00369227 79.01300000
-1.32009364 743006.90714335 80.37500000
-1.43162091 743006.87112020 79.09100000
-1.52618776 743006.90034538 77.34600000
-1.55560650 743006.84518618 77.38800000
-1.65727197 743006.87823361 75.59800000
-1.70465957 743006.79781336 75.65600000
-1.86829699 743006.83690035 72.70700000
-1.90423471 743006.78637827 72.75100000
-2.15592001 743006.85005330 68.26100000
-1.95220195 743006.70514315 72.76200000
-2.20470212 743006.76939783 68.38300000
-2.23412086 743006.71423863 68.45800000
-2.28208810 743006.63300351 68.48300000
-2.37665495 743006.66222869 66.76200000
-2.38709640 743006.59234324 67.26300000
-3.06578954 743006.73027664 55.74100000
-2.45462057 743006.52501950 66.88500000
-3.11375677 743006.64904153 55.74300000
-2.52156510 743006.45851063 66.52500000
-2.66409919 743006.40650069 64.77400000
-2.70061655 743006.35516374 64.75300000
-2.74206481 743006.26929150 64.95600000
-2.77148355 743006.21413229 65.02300000
-2.81945079 743006.13289718 65.06800000
-2.94502445 743006.14613557 63.06000000
-2.97502283 743006.09016149 63.05300000
-3.02950905 743006.01356350 63.04100000
-3.05892779 743005.95840430 63.11600000
-3.62094231 743005.93602832 54.82600000
-3.26246707 743005.83443349 61.12900000
-3.29739636 743005.74392413 61.54800000
-3.32762997 743005.68934457 61.58700000
-3.37559721 743005.60810945 61.61100000
-3.50687498 743005.62540532 59.42300000
-3.56136120 743005.54880733 59.40900000
-3.57913649 743005.48413865 59.67300000
-3.62652409 743005.40371840 59.74100000
-3.78780024 743005.36504020 57.63100000
-3.84228646 743005.28844221 57.66000000
-4.15243690 743004.93351024 56.23600000
-4.43021289 743004.78626046 53.50600000
-4.41539330 743004.69840616 54.54700000
-4.44481204 743004.64324695 54.56800000
-4.56208509 743004.57326816 53.45100000
-4.61005233 743004.49203304 53.47700000
-4.67105752 743004.42007217 53.36500000
1.99672552 743012.75522198 73.12600000
1.96591226 743012.69982755 73.25000000
1.95131312 743012.55681403 74.31900000
1.91537540 743012.50629196 74.30600000
1.83897097 743012.52137053 73.01700000
1.86267082 743012.35111391 74.88500000
1.83243721 743012.29653434 74.99700000
1.78446997 743012.21529923 75.01200000
1.74853225 743012.16477715 75.01600000
1.70056501 743012.08354203 75.02700000
1.47905687 743011.93431019 73.02800000
1.44253951 743011.88297324 73.04100000
1.28635825 743011.38047606 75.37000000
1.25042054 743011.32995398 75.38300000
0.43063218 743012.10453261 55.62500000
0.39570290 743012.01402324 55.97800000
0.34750043 743011.93418264 55.95100000
0.29875998 743011.89154030 55.71300000
0.25079274 743011.81030518 55.71900000
0.37630995 743011.52958035 60.33300000
0.34689121 743011.47442115 60.34500000
0.30544295 743011.38854891 60.50400000
1.20042000 743010.32977552 84.04100000
0.27462970 743011.33315447 60.59000000
1.17100126 743010.27461632 84.10700000
1.10999607 743010.20265545 83.97200000
0.27798463 743010.98592869 63.92300000
0.22920251 743010.90527322 63.93000000
1.07269072 743009.96043797 85.59700000
0.20630275 743010.84547689 64.09200000
1.03675300 743009.90991589 85.60600000
1.00675462 743009.85394181 85.59800000
0.17884443 743010.44285667 67.52300000
0.12435821 743010.36625868 67.54100000
0.09493947 743010.31109948 67.55500000
0.27672453 743010.02839258 72.96000000
0.16105434 743010.14871467 70.08200000
0.04697223 743010.22986436 67.55500000
0.24672615 743009.97241850 72.96700000
0.26941757 743009.84214916 74.58300000
0.19281957 743009.89663538 72.97600000
0.23290021 743009.79081221 74.59800000
0.60459217 743009.41106219 83.66300000
0.28679200 743009.63712202 76.77900000
0.32093329 743009.53675085 78.24800000
0.25655839 743009.58254246 76.79300000
0.60950829 743009.21612416 85.60500000
0.30393120 743009.43348939 79.05900000
0.57357057 743009.16560209 85.61100000
0.36985251 743009.31051224 81.19100000
0.30629248 743009.35572420 79.73600000
0.40993314 743009.20468907 82.68200000
0.33985413 743009.25453816 81.22500000
0.43204492 743009.07360486 84.32800000
0.35544693 743009.12809108 82.69400000
0.39610720 743009.02308278 84.31900000
0.39788884 743008.94450272 85.06500000
0.33432880 743008.98971469 83.59400000
0.38721216 743008.87601179 85.58300000
0.07670416 743009.05884172 79.06500000
0.26757783 743008.88379818 83.61100000
0.04018681 743009.00750477 79.06900000
0.21367125 743008.80801506 83.62100000
-0.47272971 743008.49000923 76.14000000
-0.30494937 743008.29457699 80.60600000
-0.52663629 743008.41422611 76.13200000
-0.09312426 743008.10585730 85.60600000
-0.12312264 743008.04988323 85.59700000
-0.33318090 743007.93054955 83.60600000
-0.36259964 743007.87539035 83.60100000
-0.63877278 743007.91844147 79.06600000
-0.69325899 743007.84184348 79.04300000
-1.03299216 743007.93010657 72.98600000
-1.08747838 743007.85350858 72.98400000
-1.33187150 743007.87395371 69.04100000
-0.59774017 743007.50514457 83.61100000
-0.63367788 743007.45462249 83.60500000
-0.59282405 743007.31020655 85.59600000
-0.95129928 743007.41180137 79.12500000
-0.64079129 743007.22897144 85.60000000
-0.98723700 743007.36127929 79.06300000
-1.31552029 743007.47944055 73.01600000
-0.67672901 743007.17844936 85.60800000
-1.35203764 743007.42810360 73.00000000
-0.70672739 743007.12247528 85.61100000
-1.61439962 743007.42328770 69.04400000
-0.73614613 743007.06731608 85.61100000
-0.77266348 743007.01597913 85.61100000
-0.82005108 743006.93555888 85.60800000
-0.85656844 743006.88422193 85.59900000
-0.89250616 743006.83369985 85.59700000
-0.92331941 743006.77830542 85.57700000
-1.02359037 743006.81158808 83.76000000
-0.95925713 743006.72778334 85.56800000
-1.06010772 743006.76025113 83.70500000
-1.14815559 743006.78483918 82.12400000
-1.20264181 743006.70824119 82.11000000
-1.28417071 743006.72819212 80.55200000
-1.32010842 743006.67767004 80.59400000
-1.40873594 743006.70144322 79.04100000
-1.35010680 743006.62169596 80.59900000
-1.43163570 743006.64164689 79.12500000
-1.48612191 743006.56504890 79.08400000
-1.57416979 743006.58963695 77.54100000
-1.52205963 743006.51452682 79.08200000
-1.69873502 743006.56288806 75.91000000
-1.55287288 743006.45913239 79.07800000
-1.91709389 743006.52677156 72.94400000
-1.60735910 743006.38253440 79.07200000
-1.94709227 743006.47079749 73.04300000
-1.63677784 743006.32737519 79.06700000
-2.00099885 743006.39501437 73.00900000
-2.24616517 743006.45405228 68.68000000
-1.67329520 743006.27603824 79.04100000
-2.29413241 743006.37281716 68.72300000
-1.72720178 743006.20025512 79.00100000
-2.46844651 743006.34341321 66.45400000
-2.51722863 743006.26275774 66.48000000
-2.53360941 743006.19832428 66.76200000
-2.57012677 743006.14698733 66.75300000
-2.76004845 743006.01455715 65.15200000
-2.78434273 743005.95452559 65.23200000
-2.83882895 743005.87792760 65.26300000
-2.97662569 743005.89986060 62.84700000
-2.86824769 743005.82276840 65.29100000
-3.03111191 743005.82326261 62.84000000
-3.06053065 743005.76810340 62.83900000
-3.07178697 743005.69879759 63.34700000
-3.55405423 743005.73505074 55.71500000
-3.16950309 743005.61490742 62.75000000
-3.34619325 743005.43379535 61.74300000
-3.39416049 743005.35256023 61.78400000
-3.44806707 743005.27677711 61.77000000
-3.59712014 743005.22940430 59.84700000
-3.64508738 743005.14816918 59.92400000
-3.74932247 743005.06891614 59.15000000
-3.87311450 743005.00357447 57.91600000
-3.90311288 743004.94760039 57.97900000
-4.00734797 743004.86834734 57.20000000
-4.03676671 743004.81318814 57.19800000
-4.18423170 743004.72664291 55.76300000
-4.18245006 743004.64806285 56.54000000
-4.21268368 743004.59348329 56.56200000
-4.36072831 743004.50612319 55.15300000
-4.47896812 743004.51414481 53.33800000
-4.44641490 743004.45294606 54.48600000
-4.48786316 743004.36707382 54.56200000
-4.54234938 743004.29047583 54.56000000
-4.64658447 743004.21122278 53.75000000
-4.71410865 743004.14389904 53.36100000
-4.76149624 743004.06347880 53.34700000
2.00758097 743012.55483196 73.12000000
1.97734736 743012.50025240 73.13800000
1.95622923 743012.36187601 74.22500000
1.92623085 743012.30590194 74.20800000
1.83895618 743012.29189722 73.01300000
1.87410591 743012.15153876 74.92000000
1.83184278 743012.06624616 75.06300000
1.80242404 743012.01108696 75.10000000
1.74793782 743011.93448897 75.11200000
1.71851908 743011.87932976 75.12500000
1.66403287 743011.80273177 75.13800000
1.57439692 743011.86649224 73.03000000
1.51991070 743011.78989425 73.04100000
1.41251156 743011.36805254 75.38200000
1.36372945 743011.28739707 75.39900000
0.59113513 743012.18180359 55.28900000
0.56248959 743012.08805161 55.66600000
0.52756031 743011.99754224 56.07300000
0.47959307 743011.91630713 56.05500000
0.37613118 743011.79846131 55.71200000
0.50246326 743011.51715684 60.27800000
0.32816394 743011.71722619 55.72200000
0.47165001 743011.46176240 60.28400000
0.43672072 743011.37125304 60.62200000
0.38933312 743011.29083279 60.63100000
0.94439822 743010.58920345 75.68100000
0.35281576 743011.23949584 60.61100000
0.91439985 743010.53322938 75.69100000
1.21837407 743010.12556325 84.20800000
0.87846213 743010.48270730 75.64900000
0.40332306 743010.97408482 63.84600000
1.18837569 743010.06958918 84.22200000
1.12143116 743010.00308031 83.91500000
0.31309269 743010.80755710 64.15300000
0.28367395 743010.75239790 64.14100000
0.60010649 743010.33464265 72.96200000
0.22918773 743010.67579991 64.11200000
1.08412581 743009.76086282 85.59600000
0.55271889 743010.25422241 72.97300000
1.04760846 743009.70952587 85.60000000
0.51620153 743010.20288546 72.93000000
1.01818972 743009.65436667 85.59700000
0.48678279 743010.14772625 72.93800000
0.98167236 743009.60302972 85.59100000
0.43881555 743010.06649114 72.97200000
0.40229820 743010.01515419 72.95500000
0.35409573 743009.93531359 72.94800000
0.38765738 743009.83412754 74.46000000
0.31757837 743009.88397663 72.95700000
0.28009424 743009.91064010 72.03900000
0.33969014 743009.75289243 74.48100000
0.71277662 743009.37337763 83.64900000
0.41213043 743009.62527815 76.73500000
