0.66126881 58973857.77935077 177.26400000
0.66174966 58973857.82634830 177.25000000
0.66214867 58973857.86534626 177.23500000
0.66254767 58973857.90434422 177.21800000
0.66302852 58973857.95134176 177.20100000
0.66342752 58973857.99033972 177.18800000
0.63290999 58973858.03765441 177.17700000
0.63330899 58973858.07665238 177.16700000
0.63378984 58973858.12364992 177.15100000
0.63418885 58973858.16264787 177.13200000
0.63466970 58973858.20964541 177.11700000
0.63514031 58973858.25564301 177.10200000
0.63553932 58973858.29464097 177.09100000
0.63594855 58973858.33463887 177.08200000
0.63641917 58973858.38063647 177.07200000
0.63681817 58973858.41963442 177.05900000
0.63729902 58973858.46663196 177.05400000
0.63769802 58973858.50562993 177.02900000
0.63817887 58973858.55262747 177.00100000
0.63865972 58973858.59962501 176.98100000
0.63905872 58973858.63862296 176.96200000
0.63953957 58973858.68562050 176.95700000
0.63993857 58973858.72461846 176.94400000
0.64041942 58973858.77161600 176.92900000
0.64081843 58973858.81061396 176.91000000
0.64129928 58973858.85761150 176.89500000
0.64169828 58973858.89660946 176.88200000
0.64217913 58973858.94360700 176.86500000
0.64257813 58973858.98260496 176.85200000
0.64305898 58973859.02960250 176.84100000
0.64345798 58973859.06860046 176.83200000
0.64393883 58973859.11559800 176.83200000
0.64433783 58973859.15459596 176.83000000
0.61365661 58973859.18591149 176.93800000
0.61405561 58973859.22490945 176.96200000
0.61445462 58973859.26390741 176.96800000
0.61485362 58973859.30290537 176.99200000
0.61525262 58973859.34190333 177.00000000
0.61597901 58973859.41289961 176.79600000
0.61653148 58973859.46689679 176.69000000
0.61693048 58973859.50589474 176.68800000
0.61741133 58973859.55289228 176.67900000
0.62157528 58973859.95987098 176.77400000
1.06372673 58973839.05525333 173.91900000
1.03329105 58973839.11056761 173.97900000
1.03377190 58973839.15756515 174.05700000
1.03425275 58973839.20456269 174.07400000
1.03480521 58973839.25855986 174.14300000
1.03536791 58973839.31355698 174.19700000
1.03584876 58973839.36055452 174.26300000
1.03640122 58973839.41455170 174.33200000
1.03688207 58973839.46154924 174.34300000
1.03744477 58973839.51654636 174.44000000
1.03792562 58973839.56354390 174.45300000
1.03848831 58973839.61854102 174.52900000
1.03904078 58973839.67253820 174.60800000
1.06788045 58973839.46123208 173.07000000
1.00852325 58973839.71985289 174.64100000
1.06812599 58973839.48523083 172.92700000
1.00900410 58973839.76685043 174.66900000
1.06852499 58973839.52422879 172.86500000
1.00956680 58973839.82184755 174.77000000
1.06884215 58973839.55522716 172.80700000
1.01004765 58973839.86884509 174.78500000
1.06924115 58973839.59422512 172.72900000
1.06995731 58973839.66422146 172.61000000
1.07043816 58973839.71121900 172.60200000
1.07083716 58973839.75021696 172.60600000
1.07131801 58973839.79721450 172.59300000
1.07171701 58973839.83621246 172.58200000
1.07219786 58973839.88321000 172.56700000
1.07259687 58973839.92220796 172.54800000
1.04207934 58973839.96952266 172.53700000
1.04247834 58973840.00852061 172.52200000
1.04440174 58973840.19651077 173.62300000
1.07307772 58973839.96920550 171.86300000
1.01395582 58973840.25082510 173.71000000
1.07339487 58973840.00020388 171.75700000
1.01443667 58973840.29782264 173.78700000
1.07372226 58973840.03220220 171.62300000
1.01508122 58973840.36081935 173.90400000
1.07403941 58973840.06320058 171.55400000
1.01556207 58973840.40781689 173.93200000
1.01587922 58973840.43881527 173.85600000
1.01619638 58973840.46981364 173.72000000
1.01644192 58973840.49381238 173.53900000
1.01659538 58973840.50881160 173.35200000
1.04783930 58973840.53249319 173.16700000
1.04799276 58973840.54749240 172.95500000
1.04815645 58973840.56349157 172.73300000
1.04855546 58973840.60248952 172.70300000
1.04855546 58973840.60248952 172.33500000
1.04887261 58973840.63348790 172.15800000
1.04903631 58973840.64948706 171.92900000
1.04927161 58973840.67248586 171.75100000
1.04918977 58973840.66448627 171.34500000
1.04983431 58973840.72748298 171.46200000
1.08011653 58973840.65716949 170.07800000
1.08051553 58973840.69616745 170.10000000
1.08099638 58973840.74316499 170.05700000
1.08171254 58973840.81316133 170.27900000
1.08211154 58973840.85215928 170.27000000
1.08347224 58973840.98515232 169.81300000
1.08395309 58973841.03214987 169.80400000
1.11671117 58973841.20382370 168.85800000
1.08618341 58973841.25013845 168.86300000
1.11734549 58973841.26582046 168.58700000
1.11782633 58973841.31281800 168.58500000
1.11822534 58973841.35181596 168.57000000
1.08890482 58973841.51612453 169.20700000
1.08938567 58973841.56312207 169.22000000
1.09010182 58973841.63311841 169.02400000
1.09058267 58973841.68011595 169.02900000
0.88174312 58973842.67430458 178.34500000
0.88222397 58973842.72130212 178.33200000
0.88254113 58973842.75230050 178.30400000
0.88294013 58973842.79129846 178.25500000
0.88334936 58973842.83129637 178.22000000
1.12246090 58973841.76579429 167.59700000
0.88366652 58973842.86229475 178.12800000
1.12294175 58973841.81279183 167.59800000
0.88406552 58973842.90129270 178.09100000
0.88438268 58973842.93229108 178.04100000
1.12357606 58973841.87478859 167.26400000
0.88478168 58973842.97128904 177.99400000
1.12405691 58973841.92178613 167.26100000
0.88518068 58973843.01028700 177.94500000
0.88549784 58973843.04128537 177.89300000
0.88590707 58973843.08128329 177.84800000
0.88630608 58973843.12028124 177.79400000
0.88662323 58973843.15127962 177.74600000
0.88702223 58973843.19027758 177.71400000
0.88733939 58973843.22127596 177.61500000
1.09737595 58973842.34408119 168.30900000
0.88773839 58973843.26027391 177.58500000
0.88813739 58973843.29927187 177.55700000
0.88846478 58973843.33127020 177.46600000
1.09850134 58973842.45407544 168.01100000
0.88886378 58973843.37026816 177.42700000
1.09905380 58973842.50807261 168.08700000
0.88926279 58973843.40926611 177.38000000
1.09945281 58973842.54707058 168.03100000
0.88966179 58973843.44826408 177.33200000
1.12901887 58973842.40676074 165.94700000
0.88997894 58973843.47926246 177.27600000
1.12957133 58973842.46075792 165.97000000
0.89037795 58973843.51826041 177.22500000
1.12997034 58973842.49975587 165.91000000
0.89077695 58973843.55725837 177.19700000
0.89109411 58973843.58825675 177.10200000
0.89149311 58973843.62725471 177.07000000
0.89189211 58973843.66625267 177.05900000
0.89221950 58973843.69825099 176.97200000
0.86289898 58973843.86255956 178.30000000
0.86321613 58973843.89355794 178.21800000
0.86377883 58973843.94855507 178.35400000
0.89341651 58973843.81524487 176.81500000
0.86417783 58973843.98755302 178.36300000
0.86449499 58973844.01855140 178.31500000
0.86489399 58973844.05754936 178.25700000
0.86529299 58973844.09654732 178.20500000
0.86569199 58973844.13554528 178.16000000
0.86600915 58973844.16654366 178.11900000
0.86641838 58973844.20654156 178.08200000
0.86681739 58973844.24553952 177.98800000
0.86713454 58973844.27653790 177.95100000
0.86753355 58973844.31553586 177.90100000
0.86793255 58973844.35453381 177.85200000
0.86824970 58973844.38553219 177.79600000
0.86864871 58973844.42453015 177.75000000
0.86904771 58973844.46352811 177.69900000
0.86944671 58973844.50252607 177.64700000
0.86977410 58973844.53452440 177.59700000
0.87017310 58973844.57352235 177.54200000
0.87057210 58973844.61252031 177.48500000
0.87097111 58973844.65151827 177.43200000
0.87128826 58973844.68251665 177.38000000
0.87168726 58973844.72151460 177.32600000
0.87208627 58973844.76051257 177.27400000
0.84148689 58973844.79982768 177.22300000
0.84181428 58973844.83182601 177.17700000
0.84221328 58973844.87082396 177.12800000
0.84261228 58973844.90982193 177.07600000
0.84301129 58973844.94881988 177.03900000
0.84437199 58973845.08181292 178.28700000
0.81384423 58973845.12812767 178.35400000
0.84372744 58973845.01881622 176.88000000
0.81417161 58973845.16012599 178.27600000
0.84412645 58973845.05781418 176.83500000
0.81465246 58973845.20712353 178.35800000
0.84452545 58973845.09681214 176.79100000
0.81505147 58973845.24612150 178.36300000
0.81545047 58973845.28511945 178.35400000
0.81584947 58973845.32411741 178.28700000
0.81616663 58973845.35511579 178.20100000
0.81656563 58973845.39411375 178.16200000
0.81696463 58973845.43311170 178.11700000
0.81736363 58973845.47210967 178.07400000
0.81776264 58973845.51110762 178.02900000
0.81816164 58973845.55010559 177.97900000
0.81856064 58973845.58910354 177.93800000
0.81888803 58973845.62110187 177.90600000
0.81928703 58973845.66009983 177.80400000
0.81968603 58973845.69909778 177.76100000
0.82008504 58973845.73809575 177.72900000
0.82040219 58973845.76909412 177.63200000
0.82080120 58973845.80809208 177.59100000
0.82120020 58973845.84709004 177.54600000
0.82159920 58973845.88608800 177.52000000
0.82247905 58973845.97208350 178.25900000
0.79096158 58973846.01940843 178.40400000
0.79136058 58973846.05840638 178.41200000
0.79184143 58973846.10540392 178.40800000
0.79224043 58973846.14440189 178.40400000
0.79263943 58973846.18339984 178.40100000
0.79303844 58973846.22239780 178.40600000
0.79343744 58973846.26139576 178.40600000
0.79383644 58973846.30039372 178.39700000
0.82511861 58973846.23006999 177.01600000
0.79431729 58973846.34739126 178.38900000
0.79471629 58973846.38638922 178.37800000
0.82591661 58973846.30806591 176.88900000
0.79511529 58973846.42538717 178.38800000
0.79551430 58973846.46438514 178.38200000
0.82663277 58973846.37806225 176.77600000
0.79591330 58973846.50338309 178.38900000
0.79639415 58973846.55038063 178.38900000
0.79679315 58973846.58937860 178.39100000
0.79719215 58973846.62837655 178.39100000
0.79759116 58973846.66737451 178.39100000
0.79800039 58973846.70737242 178.38800000
0.79847101 58973846.75337001 178.38600000
0.79879840 58973846.78536834 178.38200000
0.79927924 58973846.83236588 178.38200000
0.79967825 58973846.87136383 178.38400000
0.80007725 58973846.91036180 178.39500000
0.76963134 58973846.96467613 178.60200000
0.76995872 58973846.99667445 178.41400000
0.77035773 58973847.03567241 178.40600000
0.77075673 58973847.07467037 178.39700000
0.77115573 58973847.11366832 178.40100000
0.77155473 58973847.15266629 178.39300000
0.77195374 58973847.19166424 178.39700000
0.77243459 58973847.23866178 178.39100000
0.77283359 58973847.27765974 178.39500000
0.77323259 58973847.31665770 178.39700000
0.77363159 58973847.35565566 178.39700000
0.77403060 58973847.39465362 178.39500000
0.77451145 58973847.44165116 178.39100000
0.77491045 58973847.48064912 178.38900000
0.77530945 58973847.51964708 178.38900000
0.77570845 58973847.55864503 178.39100000
0.77610746 58973847.59764300 178.39500000
0.77658830 58973847.64464054 178.39700000
0.77698731 58973847.68363849 178.39500000
0.77738631 58973847.72263645 178.39100000
0.77778531 58973847.76163441 178.38800000
0.77818432 58973847.80063237 178.38600000
0.77866516 58973847.84762991 178.39100000
0.77906417 58973847.88662787 178.39100000
0.77946317 58973847.92562583 178.39300000
0.74886379 58973847.96494094 178.39300000
0.74926280 58973848.00393890 178.39500000
0.74966180 58973848.04293686 178.39100000
0.75014265 58973848.08993440 178.38900000
0.75054165 58973848.12893236 178.38600000
0.75094065 58973848.16793032 178.39300000
0.75134989 58973848.20792823 178.39700000
0.75174889 58973848.24692618 178.40100000
0.75214789 58973848.28592414 178.39700000
0.75254689 58973848.32492210 178.39500000
0.75302774 58973848.37191964 178.39100000
0.75342675 58973848.41091760 178.39100000
0.75382575 58973848.44991556 178.39300000
0.75422475 58973848.48891352 178.39500000
0.75462375 58973848.52791148 178.39500000
0.75510460 58973848.57490902 178.39500000
0.75550361 58973848.61390698 178.39700000
0.75590261 58973848.65290494 178.39700000
0.75630161 58973848.69190289 178.39700000
0.75670061 58973848.73090085 178.39500000
0.75718146 58973848.77789839 178.39300000
0.75749862 58973848.80889677 178.39500000
0.75797947 58973848.85589431 178.39300000
0.75837847 58973848.89489227 178.39900000
0.72777910 58973848.93420739 178.39500000
0.72817810 58973848.97320534 178.40100000
0.72857710 58973849.01220331 178.39700000
0.72905795 58973849.05920085 178.39500000
0.72945695 58973849.09819880 178.39100000
0.72985595 58973849.13719676 178.39300000
0.73025496 58973849.17619472 178.39500000
0.73065396 58973849.21519268 178.39900000
0.73113481 58973849.26219022 178.39900000
0.73153381 58973849.30118818 178.39500000
0.73193281 58973849.34018613 178.38800000
0.73233182 58973849.37918410 178.38900000
0.73273082 58973849.41818205 178.39300000
0.73314005 58973849.45817996 178.39700000
0.73361067 58973849.50417756 178.40100000
0.73400967 58973849.54317551 178.40600000
0.73441891 58973849.58317342 178.41000000
0.73481791 58973849.62217138 178.41200000
0.73521691 58973849.66116934 178.41400000
0.73569776 58973849.70816687 178.41000000
0.73601492 58973849.73916525 178.41200000
0.73649577 58973849.78616279 178.41000000
0.73689477 58973849.82516076 178.40800000
0.70529545 58973849.86448610 178.40600000
0.70569445 58973849.90348406 178.39900000
0.70609345 58973849.94248202 178.39700000
0.70657430 58973849.98947956 178.39300000
0.70697330 58973850.02847752 178.39300000
0.70737231 58973850.06747548 178.39300000
0.70777131 58973850.10647343 178.39100000
0.70817031 58973850.14547139 178.38600000
0.70865116 58973850.19246893 178.38900000
0.70905016 58973850.23146689 178.38400000
0.74096664 58973850.22313993 176.54800000
0.70944917 58973850.27046485 178.38600000
0.70984817 58973850.30946281 178.37600000
0.71024717 58973850.34846076 178.35600000
0.74224550 58973850.34813338 176.52000000
0.71072802 58973850.39545831 178.35400000
0.74264450 58973850.38713134 176.51100000
0.71112702 58973850.43445627 178.35000000
0.74312535 58973850.43412888 176.50300000
0.71152602 58973850.47345422 178.35400000
0.74352435 58973850.47312684 176.52200000
0.71192503 58973850.51245219 178.35400000
0.74392335 58973850.51212480 176.51600000
0.71232403 58973850.55145015 178.35000000
0.74432236 58973850.55112275 176.51100000
0.71272303 58973850.59044810 178.34500000
0.74480320 58973850.59812029 176.50900000
0.71320388 58973850.63744564 178.34300000
0.74520221 58973850.63711826 176.53300000
0.71360288 58973850.67644360 178.34100000
0.74560121 58973850.67611621 176.50900000
0.71400189 58973850.71544156 178.33500000
0.74608206 58973850.72311375 176.51100000
0.71440089 58973850.75443952 178.33200000
0.74648106 58973850.76211172 176.52600000
0.71479989 58973850.79343748 178.33200000
0.74688006 58973850.80110967 176.54400000
0.71520913 58973850.83343539 178.33200000
0.74736091 58973850.84810721 176.54600000
0.68460975 58973850.87275050 178.34300000
0.74775992 58973850.88710517 176.56700000
0.68508037 58973850.91874810 178.38200000
0.74815892 58973850.92610313 176.55700000
0.68548960 58973850.95874600 178.38000000
0.71655960 58973850.96542848 176.57200000
0.68588860 58973850.99774396 178.32000000
0.71704044 58973851.01242602 176.57400000
0.68628761 58973851.03674191 178.39300000
0.71743945 58973851.05142397 176.57600000
0.68668661 58973851.07573988 178.39500000
0.71783845 58973851.09042194 176.56700000
0.68708561 58973851.11473783 178.40100000
0.71831930 58973851.13741948 176.58900000
0.68748461 58973851.15373579 178.40400000
0.71871830 58973851.17641743 176.60200000
0.68796546 58973851.20073333 178.40400000
0.71911730 58973851.21541540 176.57400000
0.68836447 58973851.23973129 178.40100000
0.71951631 58973851.25441335 176.61000000
0.68876347 58973851.27872925 178.40100000
0.71999716 58973851.30141089 176.62100000
0.68916247 58973851.31772721 178.39500000
0.72039616 58973851.34040885 176.61000000
0.68956147 58973851.35672517 178.39900000
0.72079516 58973851.37940681 176.61900000
0.69004232 58973851.40372271 178.39500000
0.72127601 58973851.42640435 176.60400000
0.69044133 58973851.44272067 178.39300000
0.69084033 58973851.48171863 178.39300000
0.72207402 58973851.50440027 176.60600000
0.69123933 58973851.52071659 178.39500000
0.72255486 58973851.55139781 176.61300000
0.69163833 58973851.55971454 178.39700000
0.69203734 58973851.59871250 178.39700000
0.72335287 58973851.62939373 176.59100000
0.69251819 58973851.64571004 178.39700000
0.72375187 58973851.66839168 176.63200000
0.69291719 58973851.68470800 178.39900000
0.72423272 58973851.71538922 176.63200000
0.69331619 58973851.72370596 178.39700000
0.72463172 58973851.75438718 176.63400000
0.66271682 58973851.76302107 178.39500000
0.72503073 58973851.79338514 176.63600000
0.66311582 58973851.80201904 178.39500000
0.72543996 58973851.83338305 176.61900000
0.66359667 58973851.84901658 178.39500000
0.72591058 58973851.87938064 176.61900000
0.66399567 58973851.88801453 178.39700000
0.69531120 58973851.91869576 176.63200000
0.66439467 58973851.92701250 178.39700000
0.69572044 58973851.95869366 176.63600000
0.66479367 58973851.96601045 178.39500000
0.69619105 58973852.00469126 176.63800000
0.66519268 58973852.00500841 178.39100000
0.69659006 58973852.04368921 176.64100000
0.66559168 58973852.04400637 178.38900000
0.69699929 58973852.08368712 176.61500000
0.66607253 58973852.09100391 178.39100000
0.69739829 58973852.12268507 176.64700000
0.82398776 58973852.27739806 169.80700000
0.66647153 58973852.13000187 178.39700000
0.69786891 58973852.16868267 176.62600000
0.82430492 58973852.30839644 170.40800000
0.66687053 58973852.16899983 178.39900000
0.69827815 58973852.20868058 176.62600000
0.79355208 58973852.33271234 171.24400000
0.66727977 58973852.20899773 178.40600000
0.69867715 58973852.24767853 176.62800000
0.66767877 58973852.24799569 178.39300000
0.69914777 58973852.29367613 176.60000000
0.79435008 58973852.41070826 171.61300000
0.66807777 58973852.28699365 178.33900000
0.69955700 58973852.33367404 176.61000000
0.79458539 58973852.43370705 172.55400000
0.66855862 58973852.33399119 178.36300000
0.69995600 58973852.37267199 176.60600000
0.82662732 58973852.53538456 170.25500000
0.66895762 58973852.37298915 178.35600000
0.70042662 58973852.41866959 176.61900000
0.76438502 58973852.51202013 172.91400000
0.70083585 58973852.45866749 176.52600000
0.76454872 58973852.52801929 173.87600000
0.66975563 58973852.45098507 178.36900000
0.70123486 58973852.49766545 176.59500000
0.76502956 58973852.57501683 173.88400000
0.67063548 58973852.53698057 178.37300000
0.70211471 58973852.58366095 176.59300000
0.73382924 58973852.65334013 174.16900000
0.67143349 58973852.61497649 178.38400000
0.70291271 58973852.66165687 176.58700000
0.79850380 58973852.81668700 171.19200000
0.67183249 58973852.65397444 178.39500000
0.70339356 58973852.70865441 176.61000000
0.67223149 58973852.69297241 178.39300000
0.67263049 58973852.73197036 178.40100000
0.70426318 58973852.79364996 176.53100000
0.64211297 58973852.77928506 178.39700000
0.70467242 58973852.83364787 176.62600000
0.64251197 58973852.81828301 178.41200000
0.70507142 58973852.87264583 176.53100000
0.76966413 58973853.02799312 171.60200000
0.64291097 58973852.85728098 178.41900000
0.64330997 58973852.89627893 178.42300000
0.64370898 58973852.93527690 178.42900000
0.64410798 58973852.97427485 178.42700000
0.64450698 58973853.01327281 178.42700000
0.67623175 58973853.08395194 176.51600000
0.67663075 58973853.12294990 176.52600000
0.67702975 58973853.16194786 176.52400000
0.67751060 58973853.20894540 176.52400000
0.77293800 58973853.34797637 172.52000000
0.67790960 58973853.24794336 176.52600000
0.74133868 58973853.38730172 172.58200000
0.67830861 58973853.28694131 176.52900000
0.67878946 58973853.33393885 176.53100000
0.67918846 58973853.37293682 176.52900000
0.67958746 58973853.41193477 176.52400000
0.74301653 58973853.55129313 172.86700000
0.67998646 58973853.45093273 176.52600000
0.74341554 58973853.59029110 172.98500000
0.68046731 58973853.49793027 176.52200000
0.74389639 58973853.63728863 172.89100000
0.68086632 58973853.53692823 176.52900000
0.68126532 58973853.57592619 176.52600000
0.68174617 58973853.62292373 176.53100000
0.68214517 58973853.66192169 176.53100000
0.68254417 58973853.70091965 176.51800000
0.68302502 58973853.74791719 176.49600000
0.68342402 58973853.78691515 176.52200000
0.68382303 58973853.82591311 176.52000000
0.71601841 58973853.94258983 173.87500000
0.62034548 58973853.77956011 178.52600000
0.65322365 58973853.86522822 176.57400000
0.62074448 58973853.81855807 178.52900000
0.62122533 58973853.86555561 178.53700000
0.62154248 58973853.89655399 178.53700000
0.62202333 58973853.94355153 178.53900000
0.62242233 58973853.98254948 178.53700000
0.62290318 58973854.02954702 178.44500000
0.62330219 58973854.06854498 178.36900000
0.69045261 58973854.47387919 175.20300000
0.69093346 58973854.52087674 175.20300000
0.69133246 58973854.55987469 175.27000000
0.62745591 58973854.47452374 177.67100000
0.69173146 58973854.59887265 175.27600000
0.59589483 58973854.41984377 179.47000000
0.62785491 58973854.51352169 177.67100000
0.59630407 58973854.45984168 179.47500000
0.62841760 58973854.56851882 177.49000000
0.59662122 58973854.49084006 179.59300000
0.62881661 58973854.60751677 177.45700000
0.59702022 58973854.52983801 179.58700000
0.59813538 58973854.63883231 179.78700000
0.63105716 58973854.82650531 176.55700000
0.59853439 58973854.67783026 179.81500000
0.63137432 58973854.85750369 176.66400000
0.56793501 58973854.71714538 179.90800000
0.63185516 58973854.90450123 176.53500000
0.56826240 58973854.74914370 179.97300000
0.63233601 58973854.95149877 176.41200000
0.56866140 58973854.78814167 180.05000000
0.63281686 58973854.99849631 176.45700000
0.56897856 58973854.81914005 180.13200000
0.63305217 58973855.02149510 176.74200000
0.56937756 58973854.85813800 180.17500000
0.63353302 58973855.06849265 176.57000000
0.56969472 58973854.88913638 180.22900000
0.57009372 58973854.92813434 180.26800000
0.57049272 58973854.96713230 180.35200000
0.57082011 58973854.99913062 180.43600000
0.57121911 58973855.03812858 180.46200000
0.57153627 58973855.06912696 180.54800000
0.57185342 58973855.10012534 180.63400000
0.57225242 58973855.13912329 180.67700000
0.57265143 58973855.17812125 180.70300000
0.54205205 58973855.21743637 180.69700000
0.54245105 58973855.25643433 180.69200000
0.60637121 58973855.44379018 177.82200000
0.54285006 58973855.29543228 180.68200000
0.60677021 58973855.48278814 177.80400000
0.63864844 58973855.56846648 176.54100000
0.54325929 58973855.33543019 180.67100000
0.63904744 58973855.60746444 176.56500000
0.54372991 58973855.38142779 180.66200000
0.60748637 58973855.55278447 178.02600000
0.54405730 58973855.41342611 180.65100000
0.60796722 58973855.59978201 177.98800000
0.63992729 58973855.69345994 176.53500000
0.54453814 58973855.46042365 180.64300000
0.60821276 58973855.62378076 178.24200000
0.64040814 58973855.74045748 176.49400000
0.54493715 58973855.49942161 180.63000000
0.60861176 58973855.66277871 178.23100000
0.60980877 58973855.77977259 176.54400000
0.54533615 58973855.53841957 180.61900000
0.54573515 58973855.57741753 180.60600000
0.54613415 58973855.61641549 180.59300000
0.54653316 58973855.65541345 180.58200000
0.54693216 58973855.69441140 180.57200000
0.54741301 58973855.74140894 180.56100000
0.54781201 58973855.78040691 180.54600000
0.54821101 58973855.81940486 180.53300000
0.58017109 58973855.91308279 179.21000000
0.54861002 58973855.85840282 180.52000000
0.54900902 58973855.89740078 180.51300000
0.54940802 58973855.93639874 180.50900000
0.54997072 58973855.99139586 180.36000000
0.55036972 58973856.03039382 180.36000000
0.51820770 58973856.01472204 181.14300000
0.51860670 58973856.05372000 181.13200000
0.51900571 58973856.09271796 181.05000000
0.51948656 58973856.13971550 180.95100000
0.51996741 58973856.18671304 180.83900000
0.52053010 58973856.24171016 180.68800000
0.52101095 58973856.28870770 180.55000000
0.52149180 58973856.33570524 180.53100000
0.52189080 58973856.37470320 180.56500000
0.61915975 58973856.69372476 176.55400000
0.52212611 58973856.39770200 180.66400000
0.58847853 58973856.72504029 176.62100000
0.52252511 58973856.43669996 180.75700000
0.58895938 58973856.77203783 176.66600000
0.58944023 58973856.81903537 176.54400000
0.58983923 58973856.85803333 176.54600000
0.52340497 58973856.52269545 181.07400000
0.59032008 58973856.90503087 176.53900000
0.59071908 58973856.94402882 176.55700000
0.59111808 58973856.98302679 176.55700000
0.59071908 58973856.94402882 177.55900000
0.49368544 58973856.64800607 181.49000000
0.59111808 58973856.98302679 177.58000000
0.59239694 58973857.10802025 176.55400000
0.59279594 58973857.14701820 176.55400000
0.59327679 58973857.19401574 176.55900000
0.49496430 58973856.77299953 181.86300000
0.59359395 58973857.22501412 176.67500000
0.49528145 58973856.80399790 181.88200000
0.59399295 58973857.26401208 176.64500000
0.59455564 58973857.31900920 176.54800000
0.59495465 58973857.35800716 176.55000000
0.59543550 58973857.40500470 176.55400000
0.49647846 58973856.92099178 182.32600000
0.59575265 58973857.43600307 176.61000000
0.59623350 58973857.48300062 176.55900000
0.59671435 58973857.52999816 176.55400000
0.59711335 58973857.56899612 176.55200000
0.59751235 58973857.60799408 176.54400000
0.59799320 58973857.65499162 176.53900000
0.59839221 58973857.69398957 176.54200000
0.56787468 58973857.74130427 176.54400000
0.56827368 58973857.78030223 176.55000000
0.56867268 58973857.81930019 176.55200000
0.56907169 58973857.85829815 176.55200000
0.56955254 58973857.90529569 176.55000000
0.56995154 58973857.94429365 176.54400000
0.57035054 58973857.98329160 176.54600000
0.57083139 58973858.03028914 176.54600000
0.57123039 58973858.06928711 176.55200000
0.57162939 58973858.10828506 176.55400000
0.57211024 58973858.15528260 176.55900000
0.57250925 58973858.19428056 176.56100000
0.57290825 58973858.23327852 176.55200000
0.57338910 58973858.28027606 176.54600000
0.57378810 58973858.31927402 176.54400000
0.57426895 58973858.36627156 176.54800000
0.54210693 58973858.35059979 177.08900000
0.57506696 58973858.44426748 176.55400000
0.57554780 58973858.49126502 176.55400000
0.57594681 58973858.53026298 176.55700000
0.57618212 58973858.55326177 176.71200000
0.54466464 58973858.60058670 176.64900000
0.57722566 58973858.65525644 176.54100000
0.54562634 58973858.69458178 176.55000000
0.54610719 58973858.74157932 176.55000000
0.54650619 58973858.78057728 176.55400000
0.54690519 58973858.81957524 176.55400000
0.54738604 58973858.86657278 176.55400000
0.54778504 58973858.90557074 176.55000000
0.54818405 58973858.94456869 176.54800000
0.54866490 58973858.99156624 176.55000000
0.54906390 58973859.03056420 176.56100000
0.54946290 58973859.06956215 176.57000000
0.54994375 58973859.11655970 176.57400000
0.55034275 58973859.15555765 176.57800000
0.55074176 58973859.19455561 176.57800000
0.55114076 58973859.23355357 176.58900000
0.55153976 58973859.27255153 176.60400000
0.55202061 58973859.31954907 176.61300000
0.55241961 58973859.35854703 176.62800000
0.55281862 58973859.39754499 176.63200000
0.55329946 58973859.44454253 176.63900000
0.55369847 58973859.48354049 176.64700000
0.55409747 58973859.52253845 176.65100000
0.52349809 58973859.56185356 176.65600000
0.52397894 58973859.60885110 176.65600000
0.52437795 58973859.64784906 176.66200000
0.52477695 58973859.68684702 176.66600000
0.52525780 58973859.73384456 176.66900000
0.52565680 58973859.77284252 176.67300000
0.52605580 58973859.81184047 176.67900000
0.52645481 58973859.85083844 176.69000000
0.52685381 58973859.88983639 176.70100000
0.52693566 58973859.89783598 176.99400000
0.91611290 58973836.84564790 177.75500000
0.91699275 58973836.93164340 177.77600000
0.91739175 58973836.97064136 177.78100000
0.91787260 58973837.01763890 177.80200000
0.91835345 58973837.06463644 177.83000000
0.91883430 58973837.11163398 177.83200000
0.91931515 58973837.15863152 177.84500000
0.91971415 58973837.19762948 177.85400000
0.92019500 58973837.24462702 177.87100000
0.92059400 58973837.28362498 177.88200000
0.92107485 58973837.33062252 177.89500000
0.92154547 58973837.37662011 177.91000000
0.92194447 58973837.41561807 177.92500000
0.92242532 58973837.46261561 177.94700000
0.89190780 58973837.50993031 177.96000000
0.89238865 58973837.55692784 177.97500000
0.89278765 58973837.59592581 177.99000000
0.89326850 58973837.64292335 178.00300000
0.89374935 58973837.68992089 178.02000000
0.89414835 58973837.72891884 178.03500000
0.89462920 58973837.77591638 178.05200000
0.89511005 58973837.82291392 178.06700000
0.89550905 58973837.86191189 178.08200000
0.89598990 58973837.90890943 178.09700000
0.89638890 58973837.94790738 178.10800000
0.89686975 58973837.99490492 178.12600000
0.89734037 58973838.04090252 178.13600000
0.89782122 58973838.08790006 178.15600000
0.89822022 58973838.12689801 178.15800000
0.89870107 58973838.17389555 178.19000000
0.89918192 58973838.22089309 178.21800000
0.89958092 58973838.25989106 178.22500000
0.86906339 58973838.30720575 178.24000000
0.86946240 58973838.34620371 178.24600000
0.86994325 58973838.39320125 178.25900000
0.87034225 58973838.43219921 178.26800000
0.87082310 58973838.47919675 178.28300000
0.87130395 58973838.52619429 178.29600000
0.87170295 58973838.56519224 178.31500000
0.87218380 58973838.61218978 178.33200000
0.87266465 58973838.65918732 178.34800000
0.87306365 58973838.69818529 178.36300000
0.87346265 58973838.73718324 178.37800000
0.87394350 58973838.78418078 178.39100000
0.87442435 58973838.83117832 178.41000000
0.87482335 58973838.87017629 178.42500000
0.87529397 58973838.91617388 178.44200000
0.87577482 58973838.96317142 178.45700000
0.87617382 58973839.00216938 178.46000000
0.87657283 58973839.04116733 178.45700000
0.87537582 58973838.92417346 177.36300000
0.87738106 58973839.12016320 178.42500000
0.87633752 58973839.01816854 177.46000000
0.87681837 58973839.06516608 177.47300000
0.84649790 58973839.22948489 178.30200000
0.87778006 58973839.15916116 177.58500000
0.87833253 58973839.21315833 177.61700000
0.87881338 58973839.26015587 177.65100000
0.87921238 58973839.29915383 177.68600000
0.87969323 58973839.34615137 177.72500000
0.88017408 58973839.39314891 177.76100000
0.88065493 58973839.44014645 177.79400000
0.84913745 58973839.48747138 177.83700000
0.84968992 58973839.54146855 177.88200000
0.85017077 58973839.58846609 177.92100000
0.85065162 58973839.63546363 177.95700000
0.85113247 58973839.68246117 177.99600000
0.85161332 58973839.72945871 178.03500000
0.85209416 58973839.77645625 178.07800000
0.85257501 58973839.82345379 178.11000000
0.85297402 58973839.86245175 178.13000000
0.85352648 58973839.91644893 178.19900000
0.85400733 58973839.96344647 178.27600000
0.85448818 58973840.01044401 178.30000000
0.85488718 58973840.04944196 178.27600000
0.88352979 58973839.72113174 175.88900000
0.85536803 58973840.09643951 178.32400000
0.88401064 58973839.76812929 175.92700000
0.85576703 58973840.13543747 178.32800000
0.88440965 58973839.80712724 175.88600000
0.85608419 58973840.16643585 178.25100000
0.88465519 58973839.83112599 175.76300000
0.82564851 58973840.22175012 178.31100000
0.88505419 58973839.87012395 175.74400000
0.82596566 58973840.25274850 178.24200000
0.88537134 58973839.90112232 175.63800000
0.82644651 58973840.29974604 178.27600000
0.82669205 58973840.32374478 178.19900000
0.82700921 58973840.35474316 178.09500000
0.82740821 58973840.39374112 178.06500000
0.82780721 58973840.43273908 178.03700000
0.82812437 58973840.46373746 177.97000000
0.82845176 58973840.49573578 177.92500000
0.82885076 58973840.53473374 177.91600000
0.82924976 58973840.57373170 177.87800000
0.82956692 58973840.60473008 177.82600000
0.82996592 58973840.64372803 177.78100000
0.83036492 58973840.68272600 177.72300000
0.83068208 58973840.71372437 177.68400000
0.83180747 58973840.82371861 178.23500000
0.83228832 58973840.87071615 178.23300000
0.83268732 58973840.90971412 178.23500000
0.83308632 58973840.94871207 178.24000000
0.83356717 58973840.99570961 178.24400000
0.83396618 58973841.03470757 178.25100000
0.83436518 58973841.07370553 178.25900000
0.83484603 58973841.12070307 178.26600000
0.80424665 58973841.16001818 178.28100000
0.80464566 58973841.19901615 178.28900000
0.80512651 58973841.24601369 178.29200000
0.80552551 58973841.28501164 178.31100000
0.83499949 58973841.13570228 177.05700000
0.80600636 58973841.33200918 178.35400000
0.80647698 58973841.37800678 178.36700000
0.80687598 58973841.41700473 178.36300000
0.80728521 58973841.45700264 178.36500000
0.80768421 58973841.49600060 178.35800000
0.80815483 58973841.54199819 178.35800000
0.80856407 58973841.58199610 178.35200000
0.80896307 58973841.62099406 178.35600000
0.80936207 58973841.65999202 178.35600000
0.80984292 58973841.70698956 178.36000000
0.81024192 58973841.74598752 178.35800000
0.81064092 58973841.78498548 178.35600000
0.81103993 58973841.82398343 178.35400000
0.81143893 58973841.86298139 178.35600000
0.81191978 58973841.90997893 178.35400000
0.81231878 58973841.94897689 178.35400000
0.81271778 58973841.98797485 178.35400000
0.81311679 58973842.02697281 178.35600000
0.78259926 58973842.07428750 178.35800000
0.78299826 58973842.11328547 178.35800000
0.78339726 58973842.15228342 178.36000000
0.78379627 58973842.19128139 178.35600000
0.78427712 58973842.23827893 178.35600000
0.78467612 58973842.27727688 178.35200000
0.78507512 58973842.31627484 178.35200000
0.78547412 58973842.35527280 178.35600000
0.78595497 58973842.40227034 178.35800000
0.78635398 58973842.44126830 178.36300000
0.78675298 58973842.48026626 178.36500000
0.78715198 58973842.51926421 178.36700000
0.78755098 58973842.55826218 178.36500000
0.78803183 58973842.60525972 178.36000000
0.78843083 58973842.64425767 178.36000000
0.78882984 58973842.68325564 178.36000000
0.78931069 58973842.73025317 178.36500000
0.78970969 58973842.76925113 178.36700000
0.79010869 58973842.80824909 178.37300000
0.79050769 58973842.84724705 178.37300000
0.79098854 58973842.89424459 178.37100000
0.79138755 58973842.93324255 178.36700000
0.79178655 58973842.97224051 178.36000000
0.76018723 58973843.01156585 178.36300000
0.76058623 58973843.05056381 178.36900000
0.76106708 58973843.09756135 178.38200000
0.76146608 58973843.13655931 178.38900000
0.76186508 58973843.17555727 178.39500000
0.76234593 58973843.22255481 178.38800000
0.76274493 58973843.26155277 178.38800000
0.76314394 58973843.30055073 178.38400000
0.76354294 58973843.33954868 178.38600000
0.76394194 58973843.37854665 178.38900000
0.76442279 58973843.42554419 178.38900000
0.76482179 58973843.46454214 178.39300000
0.76522080 58973843.50354011 178.38400000
0.76561980 58973843.54253806 178.38000000
0.76602903 58973843.58253597 178.37800000
0.76649965 58973843.62853356 178.37800000
0.76689865 58973843.66753152 178.37600000
0.76730789 58973843.70752943 178.37600000
0.76770689 58973843.74652739 178.37300000
0.76810589 58973843.78552534 178.37300000
0.76858674 58973843.83252288 178.37300000
0.76898574 58973843.87152085 178.37600000
0.76938475 58973843.91051880 178.37600000
0.76978375 58973843.94951676 178.37800000
0.73926622 58973843.99683146 178.37600000
0.73966522 58973844.03582942 178.37500000
0.74006423 58973844.07482737 178.37500000
0.74046323 58973844.11382534 178.37600000
0.74086223 58973844.15282329 178.38000000
0.74126123 58973844.19182125 178.38000000
0.74174208 58973844.23881879 178.38000000
0.74214108 58973844.27781675 178.37800000
0.74254009 58973844.31681471 178.37300000
0.74293909 58973844.35581267 178.37100000
0.74341994 58973844.40281021 178.37100000
0.74381894 58973844.44180816 178.37500000
0.74421794 58973844.48080613 178.37600000
0.74461695 58973844.51980408 178.37800000
0.74501595 58973844.55880205 178.37800000
0.74541495 58973844.59780000 178.38000000
0.74589580 58973844.64479754 178.37800000
0.74629480 58973844.68379550 178.37100000
0.74669381 58973844.72279346 178.36300000
0.74709281 58973844.76179142 178.34800000
0.77673049 58973844.62848122 176.50000000
0.74749181 58973844.80078938 178.34300000
0.77712949 58973844.66747919 176.48300000
0.74789081 58973844.83978734 178.33500000
0.77753872 58973844.70747709 176.51300000
0.74837166 58973844.88678488 178.33500000
0.77800934 58973844.75347468 176.52000000
0.74877067 58973844.92578284 178.32800000
0.77840834 58973844.79247265 176.51400000
0.71825314 58973844.97309753 178.39300000
0.77881758 58973844.83247055 176.51400000
0.71857029 58973845.00409591 178.38900000
0.77921658 58973844.87146851 176.52000000
0.71905114 58973845.05109345 178.37500000
0.77968720 58973844.91746610 176.52000000
0.71937853 58973845.08309177 178.31500000
0.78009643 58973844.95746401 176.51600000
0.71984915 58973845.12908937 178.33700000
0.78056705 58973845.00346160 176.52200000
0.72024815 58973845.16808733 178.36000000
0.78096605 58973845.04245955 176.54800000
0.72065738 58973845.20808523 178.35200000
0.75037691 58973845.08277462 176.51100000
0.72112800 58973845.25408283 178.35000000
0.75077591 58973845.12177258 176.50500000
0.72152700 58973845.29308078 178.37300000
0.75124653 58973845.16777017 176.50100000
0.72193624 58973845.33307869 178.38200000
0.75165576 58973845.20776808 176.53300000
0.72240686 58973845.37907629 178.38800000
0.75212638 58973845.25376567 176.57200000
0.72273424 58973845.41107461 178.39100000
0.75260723 58973845.30076321 176.68200000
0.72313325 58973845.45007257 178.29600000
0.75308808 58973845.34776075 176.73500000
0.72361409 58973845.49707011 178.39100000
0.75356893 58973845.39475829 176.79800000
0.72401310 58973845.53606807 178.39500000
0.75404978 58973845.44175583 176.88000000
0.72441210 58973845.57506603 178.39500000
0.75453063 58973845.48875337 176.94700000
0.72489295 58973845.62206356 178.39700000
0.72529195 58973845.66106153 178.39500000
0.72569095 58973845.70005948 178.39700000
0.72608996 58973845.73905744 178.38900000
0.75596294 58973845.62874605 176.60200000
0.72648896 58973845.77805540 178.38400000
0.75636194 58973845.66774400 176.57200000
0.72688796 58973845.81705336 178.38200000
0.75677118 58973845.70774191 176.58200000
0.72736881 58973845.86405090 178.38200000
0.75724180 58973845.75373951 176.59100000
0.69676944 58973845.90336601 178.38400000
0.75772265 58973845.80073705 176.62300000
0.69716844 58973845.94236398 178.39700000
0.75812165 58973845.83973500 176.63200000
0.69756744 58973845.98136193 178.39900000
0.75852065 58973845.87873296 176.63000000
0.69804829 58973846.02835947 178.42300000
0.75891965 58973845.91773092 176.60000000
0.69852914 58973846.07535701 178.55200000
0.75940050 58973845.96472846 176.61500000
0.69884630 58973846.10635539 178.44700000
0.72880113 58973846.00404357 176.62600000
0.69932714 58973846.15335293 178.44900000
0.72920013 58973846.04304153 176.62100000
0.69980799 58973846.20035047 178.60400000
0.72960936 58973846.08303944 176.51600000
0.70012515 58973846.23134885 178.44700000
0.73007998 58973846.12903703 176.60800000
0.70052415 58973846.27034681 178.46600000
0.73047898 58973846.16803499 176.53100000
0.70100500 58973846.31734435 178.60000000
0.73088822 58973846.20803290 176.52000000
0.70140400 58973846.35634231 178.61500000
0.73135884 58973846.25403049 176.60800000
0.70180301 58973846.39534026 178.47000000
0.73175784 58973846.29302845 176.63400000
0.70212016 58973846.42633864 178.38900000
0.70251916 58973846.46533661 178.33200000
0.73256607 58973846.37202431 176.53300000
0.70300001 58973846.51233415 178.37100000
0.73303669 58973846.41802191 176.64900000
0.70339902 58973846.55133210 178.38900000
0.70379802 58973846.59033006 178.39100000
0.73399839 58973846.51201699 176.89500000
0.70419702 58973846.62932802 178.39500000
0.73431555 58973846.54301536 176.65600000
0.70467787 58973846.67632556 178.39900000
0.73472478 58973846.58301327 176.63400000
0.70507687 58973846.71532352 178.39900000
0.73512378 58973846.62201123 176.54600000
0.70547588 58973846.75432148 178.39500000
0.73559440 58973846.66800882 176.64900000
0.73600364 58973846.70800673 176.52900000
0.67452110 58973846.85664353 178.83900000
0.73647425 58973846.75400432 176.61300000
0.67492010 58973846.89564148 178.76400000
0.73687326 58973846.79300228 176.63200000
0.67523725 58973846.92663986 178.64700000
0.73728249 58973846.83300018 176.58200000
0.67563626 58973846.96563783 178.60400000
0.73768149 58973846.87199815 176.55900000
0.67603526 58973847.00463578 178.57400000
0.73815211 58973846.91799574 176.59500000
0.67643426 58973847.04363374 178.57600000
0.73856134 58973846.95799364 176.59800000
0.98262461 58973846.37646624 163.62500000
0.67691511 58973847.09063128 178.74000000
0.73896035 58973846.99699160 176.53500000
0.67739596 58973847.13762882 178.82600000
0.70836097 58973847.03630672 176.58900000
0.67779496 58973847.17662678 178.74000000
0.70884182 58973847.08330426 176.58700000
0.67819397 58973847.21562473 178.75300000
0.70924082 58973847.12230222 176.57000000
0.70963983 58973847.16130017 176.52600000
0.71003883 58973847.20029814 176.52900000
0.71051968 58973847.24729568 176.53100000
0.71091868 58973847.28629363 176.53500000
0.71131768 58973847.32529160 176.53500000
0.98710571 58973846.81444332 163.63600000
0.71171669 58973847.36428955 176.53500000
0.98758656 58973846.86144086 163.62800000
0.71219753 58973847.41128709 176.53700000
0.98782187 58973846.88443965 163.01400000
0.71259654 58973847.45028505 176.53100000
0.71299554 58973847.48928301 176.52900000
0.68219422 58973847.60660428 178.39100000
0.71347639 58973847.53628055 176.54600000
0.68259322 58973847.64560223 178.38600000
0.68299223 58973847.68460019 178.39500000
0.71427439 58973847.61427647 176.52000000
0.68379023 58973847.76259611 178.40100000
0.71515425 58973847.70027196 176.52400000
0.65327270 58973847.80991080 178.40100000
0.65367171 58973847.84890877 178.40100000
0.71603410 58973847.78626747 176.63000000
0.71643310 58973847.82526542 176.51800000
0.99262013 58973847.35341511 162.48500000
0.71683210 58973847.86426339 176.52200000
0.99310098 58973847.40041265 162.50100000
0.71723110 58973847.90326134 176.52200000
0.71771195 58973847.95025888 176.52400000
0.96378046 58973847.56472122 164.49200000
0.68611263 58973847.98958423 176.52200000
0.93234483 58973847.62004573 164.62300000
0.68651163 58973848.02858219 176.52200000
0.93274383 58973847.65904368 164.53700000
1.02569537 58973847.55608733 161.13200000
0.68699248 58973848.07557973 176.51600000
1.02617622 58973847.60308487 161.14100000
0.68739149 58973848.11457769 176.51800000
1.02665707 58973847.65008241 161.07600000
0.68779049 58973848.15357564 176.51800000
0.99645669 58973847.72839548 162.02600000
0.68818949 58973848.19257361 176.52000000
0.99693754 58973847.77539302 161.97200000
0.68867034 58973848.23957115 176.51600000
0.68906934 58973848.27856910 176.51400000
0.68946835 58973848.31756707 176.51100000
0.93633486 58973848.01002531 165.11700000
0.68994919 58973848.36456461 176.50900000
0.93681571 58973848.05702285 165.12600000
0.69034820 58973848.40356256 176.51400000
0.69074720 58973848.44256052 176.51400000
1.12329170 58973847.90710720 155.66000000
0.69122805 58973848.48955806 176.51400000
1.12384417 58973847.96110438 155.67300000
0.69162705 58973848.52855602 176.49600000
1.12440686 58973848.01610150 155.65100000
0.69202605 58973848.56755398 176.49800000
1.00140842 58973848.21237015 161.53700000
0.69242506 58973848.60655194 176.49200000
1.00188927 58973848.25936769 161.49000000
0.69290591 58973848.65354948 176.49600000
0.90933674 58973848.40132201 165.48100000
1.12568572 58973848.14109496 154.12300000
0.69330491 58973848.69254744 176.49800000
0.90981758 58973848.44831955 165.58700000
0.69418476 58973848.77854294 176.50500000
0.63298601 58973848.85717317 178.38600000
1.00436513 58973848.50135502 161.02900000
0.63338501 58973848.89617112 178.38600000
0.69498277 58973848.85653885 176.51300000
0.63378402 58973848.93516909 178.37800000
0.66446524 58973848.90385355 176.61000000
0.66486424 58973848.94285151 176.51600000
1.00572583 58973848.63434806 160.53300000
0.97545384 58973848.70566151 161.34500000
0.63506287 58973849.06016254 178.39900000
0.97592446 58973848.75165910 161.39500000
0.63546187 58973849.09916050 178.39500000
0.63586087 58973849.13815846 178.40100000
0.66654210 58973849.10684293 176.54400000
1.00756738 58973848.81433865 159.31500000
0.97753070 58973848.90865088 162.02200000
1.03880107 58973848.83702029 157.85200000
0.97808317 58973848.96264806 162.02200000
1.07172284 58973849.02469329 156.47900000
1.16515523 58973848.96873447 152.66900000
0.88672764 58973849.22159625 166.45500000
1.07228554 58973849.07969041 156.49800000
0.88720849 58973849.26859379 166.45700000
0.85660912 58973849.30790891 166.44200000
0.94912340 58973849.25995990 162.63200000
0.94960425 58973849.30695744 162.58200000
1.10571618 58973849.21935569 155.45100000
1.10611518 58973849.25835366 154.10000000
1.13696010 58973849.24303728 152.49800000
1.13751256 58973849.29703446 152.52600000
0.92020188 58973849.46326643 163.29600000
1.13799341 58973849.34403200 152.36000000
0.92068273 58973849.51026396 163.29200000
1.13863795 58973849.40702870 152.82000000
1.13919042 58973849.46102588 152.63800000
0.86052753 58973849.69088886 167.05200000
0.92324044 58973849.76025088 163.87100000
0.92372129 58973849.80724843 163.88200000
0.92420214 58973849.85424597 163.86300000
0.61437717 58973850.06842694 178.38900000
0.89471792 58973850.00255538 164.60400000
0.61477618 58973850.10742490 178.35400000
0.83236576 58973850.06619662 167.40100000
0.89519877 58973850.04955292 164.48500000
0.61525702 58973850.15442244 178.33000000
0.64617356 58973850.14610571 176.53700000
0.61565603 58973850.19342040 178.33700000
0.64657256 58973850.18510366 176.50500000
0.64785141 58973850.31009712 176.52600000
0.61725204 58973850.34941223 178.40800000
0.64825042 58973850.34909508 176.61000000
0.61765104 58973850.38841020 178.40600000
0.61813189 58973850.43540774 178.41200000
0.80560295 58973850.48049211 167.99000000
0.80608380 58973850.52748965 168.00700000
0.86956135 58973850.57384264 165.88900000
0.83804388 58973850.62116757 165.88900000
0.80935767 58973850.84747290 168.37100000
0.84043789 58973850.85515533 166.41200000
0.80983852 58973850.89447044 168.38600000
0.81023752 58973850.93346840 168.38200000
0.81223253 58973851.12845819 167.19000000
0.81271338 58973851.17545573 167.17900000
0.78339286 58973851.33976430 168.99200000
0.78403740 58973851.40276101 167.75300000
0.59516739 58973851.31868891 178.38000000
0.62740103 58973851.34136032 176.50900000
0.78451825 58973851.44975855 167.77400000
0.59564824 58973851.36568645 178.36900000
0.62788187 58973851.38835786 176.56100000
0.59604724 58973851.40468441 178.37800000
0.75559673 58973851.65306509 169.30900000
0.62995873 58973851.59134723 176.52400000
0.75607758 58973851.70006263 169.28500000
0.63035774 58973851.63034520 176.53300000
0.56752473 58973851.64698890 178.41400000
0.63083859 58973851.67734274 176.55000000
0.56792373 58973851.68598685 178.41900000
0.56832273 58973851.72498482 178.42700000
0.75895245 58973851.98104791 169.03100000
0.75926960 58973852.01204629 169.75100000
0.72951183 58973852.23136222 169.78100000
0.72999268 58973852.27835976 169.78700000
0.73030984 58973852.30935813 170.44200000
0.69962862 58973852.34067367 171.10800000
0.70002762 58973852.37967163 171.18800000
0.70035500 58973852.41166995 171.69000000
0.66967378 58973852.44298549 172.40100000
0.67007279 58973852.48198345 172.49400000
0.73263224 58973852.53634626 170.33200000
0.67038994 58973852.51298182 172.97200000
0.73303124 58973852.57534421 170.36000000
0.67078894 58973852.55197978 172.98500000
0.64003611 58973852.57629568 173.83500000
0.64035326 58973852.60729406 174.24000000
0.60811963 58973852.58462265 176.51600000
0.64075226 58973852.64629202 174.31700000
0.57703940 58973852.57694022 178.39100000
0.60851863 58973852.62362061 176.63200000
0.54644003 58973852.61625534 178.38800000
0.54683903 58973852.65525330 178.39300000
0.60971564 58973852.74061449 175.57600000
0.60986910 58973852.75561370 176.36500000
0.61026810 58973852.79461166 176.38400000
0.57967896 58973852.83492672 176.54100000
0.58007796 58973852.87392468 176.55200000
0.54891589 58973852.85824268 178.41200000
0.54931489 58973852.89724063 178.42500000
0.67654890 58973853.11495031 171.66000000
0.54971390 58973852.93623859 178.42900000
0.55011290 58973852.97523655 178.43800000
0.58175582 58973853.03791609 176.55200000
0.55059375 58973853.02223409 178.43200000
