0.63425141 606353.07482380 81.68400000
0.66978533 606353.00980579 83.82100000
0.63783221 606353.01153732 81.91600000
0.66475307 606352.91694204 83.72200000
0.66134412 606352.85403434 83.41700000
0.64826948 606352.76060493 83.27800000
0.64491464 606352.69869577 83.23400000
0.64781655 606352.60440060 83.20800000
0.64446172 606352.54249143 83.20800000
0.66234165 606352.44738461 84.79100000
0.63937535 606352.44862914 83.20800000
0.65893271 606352.38447690 84.70800000
0.65390045 606352.29161315 84.68000000
0.65049150 606352.22870545 84.65100000
0.64713666 606352.16679628 84.56500000
0.64205030 606352.07293399 84.47200000
0.63864135 606352.01002629 84.45500000
0.63360909 606351.91716254 84.45800000
0.62469843 606350.88413127 86.51200000
0.60498925 606349.22676965 89.25700000
1.17531666 606363.78023039 78.87100000
1.14072616 606363.43760013 78.11100000
1.13396238 606363.31278326 77.69300000
1.12256515 606363.25030844 77.56400000
1.12552117 606363.15701181 77.55700000
1.12211222 606363.09410410 77.53600000
1.11702586 606363.00024182 77.52600000
1.11367102 606362.93833265 77.50700000
1.10858465 606362.84447036 77.50800000
1.10349829 606362.75060807 77.49600000
1.10014345 606362.68869891 77.48100000
1.09505708 606362.59483662 77.47200000
1.09170225 606362.53292745 77.46600000
1.08661588 606362.43906516 77.47300000
1.08951779 606362.34477000 77.88800000
1.05733871 606362.47169717 75.70800000
1.08443143 606362.25090771 77.87000000
1.05398388 606362.40978800 75.62300000
1.08107659 606362.18899854 77.79100000
1.07599022 606362.09513625 77.70600000
1.07263539 606362.03322709 77.62300000
1.06922644 606361.97031938 77.51300000
1.06414007 606361.87645710 77.43100000
1.06078523 606361.81454793 77.33100000
1.05569887 606361.72068564 77.23400000
1.05234403 606361.65877647 77.14600000
1.04893508 606361.59586877 77.04100000
1.03586044 606361.50243937 76.96200000
1.03250560 606361.44053020 76.84600000
1.02741923 606361.34666791 76.81900000
1.02406439 606361.28475874 76.63800000
0.97417723 606361.38059856 73.24600000
0.70830340 606362.24024448 55.78500000
0.66981346 606362.39855912 53.06900000
0.63595696 606362.49453171 51.02700000
0.95774774 606361.22525999 72.95800000
0.70321703 606362.14638219 55.79100000
0.95439291 606361.16335082 72.97600000
0.76422035 606361.83061868 60.09000000
0.72573041 606361.98893332 57.28500000
0.75913398 606361.73675640 60.08900000
0.81382644 606361.45238035 64.17900000
0.86951743 606361.16795020 67.77900000
0.84259657 606361.26254548 66.04200000
0.98225719 606360.66110727 75.90300000
0.92415578 606360.88257562 71.99600000
0.90650180 606360.85248680 70.73600000
0.97376187 606360.50433728 75.81300000
0.91571458 606360.72680416 71.80600000
0.91062821 606360.63294187 71.78100000
0.91358424 606360.53964524 72.12800000
0.93368620 606359.91263893 74.95800000
0.89977559 606360.00761298 72.70800000
0.92519088 606359.75586894 74.78800000
0.86959258 606359.72783631 71.77300000
0.87149595 606359.63359525 71.79100000
0.86646370 606359.54073150 71.78500000
0.88488925 606359.28936623 73.64600000
0.88779116 606359.19507106 74.07800000
0.88125333 606358.94505855 74.13800000
0.84739684 606359.04103114 71.79100000
0.86749980 606358.82062045 73.67800000
0.87017475 606358.44492530 74.70800000
0.86508839 606358.35106302 74.73100000
0.81693275 606358.47885595 71.78600000
0.83245638 606358.32178585 73.01000000
0.86463546 606358.19485868 75.01300000
0.82060623 606358.10310669 72.69400000
0.84747198 606357.60091726 75.73400000
0.79064918 606357.69813438 72.11300000
0.78556281 606357.60427209 72.12800000
0.84534164 606357.41375833 75.99500000
0.77712161 606357.44850064 71.78500000
0.77371266 606357.38559294 71.77900000
0.77666868 606357.29229630 72.09700000
0.74929490 606357.23068725 70.90500000
0.72465117 606357.20097720 69.35900000
0.71956481 606357.10711491 69.44400000
0.82917669 606356.81976280 76.70500000
0.77303277 606356.94798862 72.78100000
0.69224513 606357.04650439 67.94700000
0.82576774 606356.75685510 76.71100000
0.82872376 606356.66355846 76.98400000
0.77084832 606356.75983116 73.35700000
0.65111781 606356.86045724 65.96200000
0.64603145 606356.76659495 65.96800000
0.61680839 606356.80022549 64.38800000
0.61172203 606356.70636320 64.37800000
0.76317868 606356.32260562 74.16800000
0.76971550 606356.16602251 74.63800000
0.55757417 606356.42788517 61.65100000
0.81613961 606356.00627645 77.73900000
0.53020039 606356.36627612 60.31900000
0.81110736 606355.91341270 77.74900000
0.80769841 606355.85050500 77.95800000
0.76707813 606355.82166072 75.46900000
0.76199176 606355.72779843 75.47300000
0.45939709 606356.05765516 57.05500000
0.76489367 606355.63350326 75.87600000
0.45598814 606355.99474746 57.03900000
0.34401895 606355.81354067 50.97900000
0.36820975 606355.68704638 52.39400000
0.79616690 606355.19416742 78.74400000
0.76589120 606355.22685353 76.72200000
0.79807028 606355.09992636 78.94400000
0.76080484 606355.13299124 76.82900000
0.33674813 606355.53152093 51.05500000
0.76376086 606355.03969461 77.14100000
0.32372760 606355.43909006 50.52700000
0.75771454 606354.63242511 78.09400000
0.76067056 606354.53912848 78.40600000
0.77514155 606354.38111395 79.77900000
0.77809757 606354.28781732 79.89000000
0.75825914 606354.06957104 79.40200000
0.76116106 606353.97527587 79.66300000
0.77278424 606353.91255505 80.43000000
0.76769788 606353.81869277 80.44200000
0.78780084 606353.59828208 82.06700000
0.79769250 606353.50360814 83.15400000
0.79266024 606353.41074439 83.06300000
0.75539480 606353.44380927 80.90100000
0.78925130 606353.34783668 82.87700000
0.77790818 606353.28636040 82.69600000
0.75784379 606353.19330977 81.48300000
0.75443484 606353.13040206 81.67400000
0.78834545 606353.03542801 83.83100000
0.75739086 606353.03710543 81.81900000
0.78493650 606352.97252031 83.80800000
0.75398192 606352.97419773 82.01200000
0.77985013 606352.87865802 83.68300000
0.75588529 606352.87995667 82.18000000
0.77649530 606352.81674885 83.59500000
0.77140893 606352.72288657 83.49700000
0.76805409 606352.66097740 83.38700000
0.76296773 606352.56711511 83.30300000
0.75955878 606352.50420741 83.23500000
0.75452652 606352.41134366 83.37300000
0.75111757 606352.34843595 83.52700000
0.75401949 606352.25414078 83.69400000
0.75720147 606352.03564851 84.44600000
0.75379252 606351.97274080 84.42400000
0.71650551 606349.25177210 89.23800000
0.71315068 606349.18986293 89.24500000
1.17558019 606362.93497781 76.93000000
1.15338545 606362.65476826 76.30000000
1.14997651 606362.59186055 76.29100000
1.14489014 606362.49799827 76.30500000
1.13985788 606362.40513452 76.30500000
1.13644894 606362.34222681 76.30900000
1.13136257 606362.24836453 76.31700000
1.12800773 606362.18645536 76.31900000
1.12292137 606362.09259307 76.32700000
1.12482474 606361.99835201 76.32900000
1.12146991 606361.93644284 76.33300000
1.11638354 606361.84258056 76.33300000
1.11129717 606361.74871827 76.33300000
1.10794234 606361.68680910 76.33300000
1.07576326 606361.81373628 74.26300000
1.10285597 606361.59294682 76.33000000
1.09950113 606361.53103765 76.32900000
1.09441477 606361.43717536 76.31900000
1.09899410 606361.37383478 76.31800000
1.09396184 606361.28097103 76.33200000
1.08887547 606361.18710874 76.34300000
1.08546653 606361.12420104 76.34900000
1.08043427 606361.03133728 76.35000000
1.07702532 606360.96842958 76.26500000
0.83411780 606361.82683096 59.88100000
1.07193896 606360.87456729 76.16600000
1.06858412 606360.81265813 76.08600000
1.06349775 606360.71879584 75.99600000
1.06014292 606360.65688667 75.90200000
1.05505655 606360.56302438 75.81400000
1.04365932 606360.50054956 75.69800000
0.98393461 606360.69206186 71.72200000
1.03862706 606360.40768581 75.61500000
1.03521812 606360.34477811 75.52400000
0.98175015 606360.50390440 72.10000000
1.03186328 606360.28286894 75.44400000
1.02677691 606360.18900666 75.34400000
1.02336797 606360.12609895 75.19400000
1.00285065 606359.87684398 74.88800000
0.99949581 606359.81493481 74.86100000
0.97262906 606359.91052863 72.76100000
1.00139919 606359.72069376 74.84700000
0.96754269 606359.81666634 72.95300000
0.93735968 606359.53688967 71.79100000
0.93227332 606359.44302739 71.79200000
0.92718695 606359.34916510 71.79000000
0.95768861 606359.19128334 73.81700000
0.95723568 606359.03507901 74.05000000
0.95214932 606358.94121672 74.06500000
0.91829282 606359.03718931 71.79400000
0.94075209 606358.87874190 73.72200000
0.89967888 606358.69369328 71.79100000
0.89459252 606358.59983099 71.78900000
0.89822742 606358.53754305 71.78600000
0.93498583 606358.34727530 74.79100000
0.93788775 606358.25298013 74.95900000
0.90235383 606358.31799813 72.94300000
0.89391263 606358.16222668 72.75900000
0.88882626 606358.06836439 72.76300000
0.92467882 606357.56568796 75.78500000
0.91959246 606357.47182567 75.92400000
0.86344854 606357.60005149 72.09300000
0.84701905 606357.44471292 71.78700000
0.84193269 606357.35085063 71.69100000
0.84656613 606357.28850858 72.01300000
0.82019088 606357.22684542 70.72200000
0.80085948 606357.16580201 69.61000000
0.79577312 606357.07193973 69.60900000
0.84225133 606356.91319221 72.91000000
0.76314111 606357.04266256 67.76400000
0.90197605 606356.72167991 76.81900000
0.89862121 606356.65977074 76.90200000
0.83906835 606356.72508886 73.30500000
0.72442421 606356.91957722 66.06500000
0.71933784 606356.82571493 66.14600000
0.70095087 606356.76361888 65.24800000
0.68161947 606356.70257548 64.20800000
0.89598383 606356.31540895 77.33200000
0.89089747 606356.22154666 77.45900000
0.84106441 606356.31838502 74.25000000
0.89453238 606356.15925872 77.56900000
0.84396632 606356.22408985 74.55300000
0.88944601 606356.06539644 77.66000000
0.62574009 606356.39214434 61.81100000
0.88603706 606356.00248874 77.77200000
0.60109637 606356.36243429 60.17900000
0.88899308 606355.90919210 77.86400000
0.88390672 606355.81532981 77.97200000
0.88049777 606355.75242211 78.06900000
0.88345379 606355.65912548 78.18400000
0.83987749 606355.72357783 75.56900000
0.87836743 606355.56526319 78.29100000
0.83479112 606355.62971554 75.78800000
0.50990903 606355.99182551 55.90900000
0.87495848 606355.50235549 78.39200000
0.87791450 606355.40905885 78.50000000
0.87450556 606355.34615115 78.59500000
0.86941919 606355.25228886 78.71800000
0.87237521 606355.15899223 78.84600000
0.86896626 606355.09608453 78.91600000
0.86387990 606355.00222224 79.02300000
0.86751481 606354.93993430 79.12500000
0.86242844 606354.84607201 79.22100000
0.86533035 606354.75177684 79.32700000
0.86197552 606354.68986768 79.41500000
0.85688915 606354.59600539 79.51700000
0.86152259 606354.53366334 79.61100000
0.85643622 606354.43980105 79.70800000
0.85302728 606354.37689335 79.81700000
0.84799502 606354.28402960 79.89700000
0.85257435 606354.22068901 79.98600000
0.84748799 606354.12682673 80.01100000
0.84413315 606354.06491756 80.09800000
0.84703506 606353.97062239 80.17500000
0.84194869 606353.87676010 80.33600000
0.83859386 606353.81485094 80.44500000
0.84149577 606353.72055577 80.59700000
0.84513068 606353.65826783 80.94000000
0.84004431 606353.56440554 80.93100000
0.83663536 606353.50149784 80.91800000
0.83160311 606353.40863409 81.05500000
0.83618244 606353.34529350 81.23800000
0.83109607 606353.25143121 81.42500000
0.79103640 606349.18564233 89.26500000
0.79393832 606349.09134716 89.25300000
1.23272164 606362.40010226 75.74000000
1.21723658 606362.24371104 75.35100000
1.21047279 606362.11889417 75.02700000
1.20544053 606362.02603042 75.04100000
1.20035417 606361.93216813 75.04100000
1.19694522 606361.86926043 75.05700000
1.19191296 606361.77639668 75.06300000
1.19381634 606361.68215562 75.09100000
1.19040740 606361.61924792 75.12100000
1.18537514 606361.52638416 75.12500000
1.18196619 606361.46347646 75.14000000
1.16240883 606361.52762870 73.70300000
1.17687983 606361.36961417 75.15600000
1.17184757 606361.27675042 75.17000000
0.83408022 606362.54688790 52.07500000
1.16843862 606361.21384272 75.18400000
1.14257040 606361.30938243 73.13400000
1.17134053 606361.11954755 75.19400000
1.13916146 606361.24647472 73.05100000
1.16630828 606361.02668380 75.20800000
0.93764578 606361.85226630 59.83200000
1.16289933 606360.96377610 75.22000000
0.95848174 606361.66386284 61.88900000
0.93255941 606361.75840401 59.81900000
1.15781296 606360.86991381 75.22200000
0.98725187 606361.47402797 63.91600000
1.15278071 606360.77705006 75.22200000
1.04194433 606361.18965192 67.51200000
1.01607611 606361.28519163 65.93000000
1.14937176 606360.71414236 75.21800000
1.05746797 606361.03258182 68.95600000
1.03685796 606361.09578963 67.51500000
1.14428539 606360.62028007 75.05200000
1.10053724 606360.81092660 71.85500000
1.14093055 606360.55837090 75.11400000
1.14383247 606360.46407573 75.26600000
1.13874610 606360.37021344 75.38800000
1.13539127 606360.30830428 75.38800000
1.13030490 606360.21444199 75.36300000
1.12521853 606360.12057970 75.27700000
1.12186369 606360.05867054 75.16600000
1.11677733 606359.96480825 75.09100000
1.11342249 606359.90289908 75.00000000
1.11001354 606359.83999138 74.88500000
1.10492718 606359.74612909 74.79100000
1.10157234 606359.68421992 74.70200000
1.08849769 606359.59079052 74.55700000
1.08514285 606359.52888135 74.49900000
1.08005649 606359.43501906 74.39200000
1.03770468 606359.37422166 71.80500000
1.06021806 606359.21677279 73.70800000
1.03434984 606359.31231249 71.77600000
1.06311997 606359.12247762 74.01300000
1.05976513 606359.06056845 73.94600000
1.05467877 606358.96670617 73.96800000
1.02082227 606359.06267875 71.78700000
1.05132393 606358.90479700 73.77300000
1.00729470 606358.81304501 71.79900000
1.01019661 606358.71874984 71.80100000
1.00511025 606358.62488756 71.80100000
1.04650210 606358.37227775 74.75900000
1.04146984 606358.27941400 74.92600000
1.03638348 606358.18555171 74.94500000
1.00778519 606358.24919241 72.91500000
1.03828685 606358.09131065 75.05600000
1.03493202 606358.02940148 75.23000000
0.99934399 606358.09342095 72.81600000
1.03783393 606357.93510632 75.31900000
1.03274756 606357.84124403 75.44300000
1.02939273 606357.77933486 75.54100000
1.03229464 606357.68503969 75.64200000
1.02720827 606357.59117740 75.76300000
1.02212191 606357.49731512 75.88500000
1.02675535 606357.43497307 75.95200000
0.96194427 606357.53262307 72.00000000
1.02166898 606357.34111078 76.05500000
1.01658262 606357.24724849 76.16500000
0.94546067 606357.37628597 71.75300000
1.02121606 606357.18490644 76.26600000
0.94841670 606357.28298933 71.97400000
1.01612969 606357.09104416 76.38200000
1.01104333 606356.99718187 76.48600000
1.01567677 606356.93483982 76.58500000
1.01059040 606356.84097753 76.66900000
1.01249378 606356.74673648 76.80200000
1.00913894 606356.68482731 76.87500000
1.00405258 606356.59096502 77.00000000
1.00695449 606356.49666985 77.10900000
1.00359965 606356.43476068 77.21800000
0.99851328 606356.34089840 77.30500000
1.00141520 606356.24660323 77.41900000
0.99806036 606356.18469406 77.48800000
0.99297399 606356.09083177 77.59300000
0.99760744 606356.02848972 77.69800000
0.99252107 606355.93462744 77.81800000
0.98743470 606355.84076515 77.92500000
0.99206815 606355.77842310 78.00200000
0.98698178 606355.68456081 78.11100000
0.94172805 606355.71805858 75.65500000
0.98189541 606355.59069853 78.20300000
0.94636150 606355.65571653 75.70800000
0.64271418 606355.98462884 57.35800000
0.98553032 606355.52841059 78.34200000
0.60840476 606355.92439709 55.77000000
0.53387387 606355.99052686 51.00500000
0.98044395 606355.43454830 78.36500000
0.97703501 606355.37164060 78.40100000
0.97200275 606355.27877684 78.41700000
0.94272558 606355.31140885 76.49700000
0.97658208 606355.21543626 78.49800000
0.94562750 606355.21711368 76.72200000
0.97149571 606355.12157397 78.52200000
0.94227266 606355.15520451 76.98600000
0.96646346 606355.02871022 78.56500000
0.49715303 606355.46073768 50.21400000
0.96305451 606354.96580252 78.60600000
0.95796814 606354.87194023 78.64100000
0.95461331 606354.81003106 78.67500000
0.95751522 606354.71573589 78.71800000
0.95416038 606354.65382673 78.75700000
0.94907402 606354.55996444 78.79100000
0.94398765 606354.46610215 78.83300000
0.94063281 606354.40419299 78.86900000
0.95152301 606354.30946493 79.42800000
0.94811406 606354.24655723 79.51100000
0.94308180 606354.15369348 79.51300000
0.93967285 606354.09078578 79.52500000
0.89311293 606349.05492744 89.37000000
0.89388450 606348.77347335 89.67700000
0.88879813 606348.67961106 89.70400000
1.32871427 606362.58217481 76.16300000
1.30311058 606362.23905756 75.34700000
1.28668110 606362.08371899 75.03000000
1.28332626 606362.02180982 75.03800000
1.27823990 606361.92794753 75.04900000
1.28114181 606361.83365236 75.06300000
1.27778697 606361.77174319 75.07300000
1.27270060 606361.67788091 75.09600000
1.26761424 606361.58401862 75.10700000
1.26425940 606361.52210945 75.12400000
1.24364940 606361.58531727 73.75000000
1.25917303 606361.42824717 75.13600000
1.26107641 606361.33400611 75.15100000
1.25772158 606361.27209694 75.16600000
1.22381097 606361.36707099 73.12600000
0.91196595 606362.54266730 52.08300000
1.25263521 606361.17823465 75.18000000
1.22045613 606361.30516182 73.03600000
0.95961456 606362.25767149 55.55500000
1.24754884 606361.08437237 75.19600000
1.24419401 606361.02246320 75.20900000
1.01553151 606361.84804570 59.85400000
1.23910764 606360.92860091 75.22300000
1.04262422 606361.62725624 61.90900000
1.23569869 606360.86569321 75.23400000
1.07144846 606361.43841990 63.96300000
1.23865471 606360.77239657 75.23300000
1.11915118 606361.15442263 67.54100000
1.23356835 606360.67853429 75.18200000
1.13362216 606360.99640810 68.94300000
1.23015940 606360.61562658 75.15200000
1.22512714 606360.52276283 75.15600000
1.22004078 606360.42890055 75.33300000
1.22462011 606360.36555996 75.41000000
1.21958785 606360.27269621 75.40200000
1.21450149 606360.17883392 75.33100000
1.21109254 606360.11592622 75.22600000
1.19974942 606360.05444993 75.12800000
1.19466306 606359.96058765 75.05500000
1.19130822 606359.89867848 74.94500000
1.18622185 606359.80481619 74.87500000
1.18281290 606359.74190849 74.75700000
1.17778065 606359.64904474 74.66200000
1.17437170 606359.58613703 74.53800000
1.16928533 606359.49227475 74.46600000
1.16593050 606359.43036558 74.35800000
1.11899935 606359.43290876 71.77900000
1.11559041 606359.37000106 71.79100000
1.14609206 606359.21211931 73.71900000
1.11055815 606359.27713731 71.78100000
1.14100570 606359.11825702 74.00000000
1.13597344 606359.02539327 73.99700000
1.13256449 606358.96248556 73.80600000
1.10501886 606359.02707069 71.77700000
1.12747813 606358.86862328 73.78700000
1.09149129 606358.77743694 71.77600000
1.08640492 606358.68357466 71.77100000
1.08299597 606358.62066695 71.75000000
1.12271041 606358.33710256 74.84600000
1.12561232 606358.24280739 74.91600000
1.09007840 606358.30782540 72.90400000
1.12225748 606358.18089823 75.02700000
1.08666946 606358.24491770 72.91500000
1.11717112 606358.08703594 75.15100000
1.08163720 606358.15205394 72.80000000
1.11907449 606357.99279488 75.25100000
1.11404224 606357.89993113 75.37000000
1.11862157 606357.83659054 75.45300000
1.11353520 606357.74272826 75.55300000
1.10850295 606357.64986451 75.66600000
1.11308228 606357.58652392 75.78100000
1.10799591 606357.49266163 75.88300000
1.04318483 606357.59031164 72.04300000
1.10296366 606357.39979788 76.00900000
1.10586557 606357.30550271 76.10600000
1.03474363 606357.43454019 71.73600000
1.10245662 606357.24259501 76.20600000
1.09742437 606357.14973126 76.29900000
1.10032628 606357.05543609 76.40500000
1.09691733 606356.99252839 76.51000000
1.09188508 606356.89966463 76.60500000
1.09378846 606356.80542358 76.73500000
1.09037951 606356.74251587 76.85900000
1.09333553 606356.64921924 76.93900000
1.08824916 606356.55535695 77.03000000
1.08484022 606356.49244925 77.13800000
1.08779624 606356.39915262 77.23500000
1.08270987 606356.30529033 77.34100000
1.07930093 606356.24238263 77.42500000
1.08225695 606356.14908599 77.53500000
1.07717058 606356.05522371 77.62600000
1.07376163 606355.99231600 77.72400000
1.07671766 606355.89901937 77.83300000
1.07330871 606355.83611167 77.93200000
1.06822234 606355.74224938 78.02200000
1.07117837 606355.64895274 78.12100000
1.02760206 606355.71340510 75.72500000
1.06776942 606355.58604504 78.20900000
0.69763360 606355.98165277 55.77600000
1.06268305 606355.49218275 78.34600000
0.61175960 606355.98630626 51.04100000
1.06631796 606355.42989482 78.37500000
1.06123159 606355.33603253 78.41600000
1.02396615 606355.36909741 76.41300000
1.05614523 606355.24217024 78.45200000
1.02692217 606355.27580078 76.58200000
1.05279039 606355.18026107 78.49500000
1.02351322 606355.21289308 76.82300000
1.04770402 606355.08639879 78.53700000
1.02641514 606355.11859791 76.98200000
1.05233747 606355.02405674 78.56800000
1.04725110 606354.93019445 78.60800000
1.04384215 606354.86728675 78.64600000
1.03880990 606354.77442300 78.68300000
1.03372353 606354.68056071 78.73000000
1.03830286 606354.61722012 78.75000000
1.03327060 606354.52435637 78.83400000
1.02986166 606354.46144867 78.86000000
1.02477529 606354.36758638 78.88400000
1.03571959 606354.27385687 79.48100000
1.03231065 606354.21094916 79.49000000
1.02722428 606354.11708688 79.50000000
0.98529780 606349.01888649 89.40400000
0.97802698 606348.73686675 89.68900000
1.31985771 606361.55014208 73.77500000
1.30342822 606361.39480351 73.44500000
0.97822849 606362.60116752 51.97200000
0.96688537 606362.53969124 51.04100000
1.29666444 606361.26998664 73.09700000
1.02783458 606362.22292919 55.38800000
1.29157807 606361.17612435 72.94000000
1.08883790 606361.90716568 59.63100000
1.05665882 606362.03409285 57.52500000
1.28117938 606361.11359542 72.73600000
1.08375154 606361.81330339 59.68000000
1.29570448 606360.95657943 73.92000000
1.29234964 606360.89467026 73.94600000
1.27273818 606360.95782397 72.46900000
1.28726328 606360.80080797 73.95900000
1.29016519 606360.70651281 74.00000000
1.28681035 606360.64460364 74.02800000
1.25289975 606360.73957769 71.90600000
1.28172399 606360.55074135 74.05900000
1.24786749 606360.64671394 72.05100000
1.27663762 606360.45687906 74.09700000
1.24445854 606360.58380624 72.02500000
1.27328278 606360.39496990 74.12500000
1.24736045 606360.48951107 72.12700000
1.27618469 606360.30067473 74.16000000
1.24232820 606360.39664732 72.23800000
1.27109833 606360.20681244 74.18000000
1.24423158 606360.30240626 72.35100000
1.25344435 606360.17672362 73.41900000
1.24835798 606360.08286133 73.39100000
1.25757076 606359.95717870 74.29900000
1.23701487 606360.02138505 72.83300000
1.25421592 606359.89526953 74.30400000
1.25611930 606359.80102847 74.31900000
1.25103293 606359.70716619 74.37100000
1.24767810 606359.64525702 74.36300000
1.24259173 606359.55139473 74.40200000
1.22593629 606359.52125180 73.39100000
1.22084992 606359.42738951 73.46600000
1.22375183 606359.33309435 73.61300000
1.22565521 606359.23885329 74.01200000
1.22062295 606359.14598954 74.02100000
1.21721401 606359.08308183 74.00100000
1.21212764 606358.98921955 74.06300000
1.21508366 606358.89592291 74.15500000
1.21167472 606358.83301521 74.16700000
1.20033160 606358.77153892 73.55500000
1.20954437 606358.64585629 74.39200000
1.20445801 606358.55199400 74.41700000
1.20104906 606358.48908630 74.38500000
1.19601680 606358.39622255 74.24800000
1.18461958 606358.33374773 74.05600000
1.17953321 606358.23988544 73.91000000
1.17617837 606358.17797627 73.78900000
1.17109201 606358.08411398 73.68400000
1.16773717 606358.02220482 73.60100000
1.19119497 606357.86370330 75.34600000
1.18784013 606357.80179413 75.33300000
1.18275377 606357.70793184 75.32300000
1.17939893 606357.64602268 75.30600000
1.17431256 606357.55216039 75.30000000
1.17621594 606357.45791933 75.28900000
1.12107056 606357.58609104 71.99000000
1.17286110 606357.39601016 75.27500000
1.16777474 606357.30214788 75.26300000
1.11262936 606357.43031958 71.76300000
1.16436579 606357.23924017 75.23900000
1.15933353 606357.14637642 75.22500000
1.15592459 606357.08346872 75.20800000
1.07681436 606357.21293907 70.48000000
1.15083822 606356.98960643 75.19700000
1.05049322 606357.15227444 68.98600000
1.14580596 606356.89674268 75.18100000
1.14239702 606356.83383498 75.17000000
1.10513157 606356.86689986 73.04100000
1.02076313 606357.02870211 67.70200000
1.13731065 606356.73997269 75.16300000
1.10976501 606356.80455781 73.11400000
1.15624323 606356.64581029 76.26000000
0.99629126 606356.87279788 66.45400000
1.15115687 606356.55194800 76.33000000
1.14607050 606356.45808572 76.33300000
1.11053658 606356.52310372 73.77700000
0.94432786 606356.78247731 63.90200000
1.14271566 606356.39617655 76.33200000
1.10545022 606356.42924143 73.97200000
0.94555236 606356.65722756 64.19000000
1.14561758 606356.30188138 76.33100000
1.11002955 606356.36590085 74.18200000
1.14220863 606356.23897368 76.32000000
1.10499729 606356.27303710 74.41400000
1.13717637 606356.14610993 76.32000000
1.13376742 606356.08320222 76.31900000
1.12868106 606355.98933994 76.32200000
1.12364880 606355.89647618 76.32200000
1.12023985 606355.83356848 76.32200000
1.12214323 606355.73932742 76.31600000
0.80524942 606356.10100451 57.43100000
1.11878840 606355.67741826 76.31800000
0.80016305 606356.00714222 57.48600000
0.69009825 606356.13828999 51.06200000
1.11370203 606355.58355597 76.30800000
0.76585363 606355.94691047 55.59700000
1.10861566 606355.48969368 76.31400000
1.10526082 606355.42778451 76.30500000
0.70997425 606355.63647933 53.20100000
0.66767655 606355.57668046 51.03400000
0.66259018 606355.48281817 51.02600000
0.64152726 606355.38982165 50.04100000
1.38757070 606361.35819691 73.40200000
1.06242508 606362.56555945 51.90100000
1.10912926 606362.28161629 55.32600000
1.08320693 606362.37615746 53.36500000
1.04303957 606362.50351752 51.03400000
1.10404289 606362.18775400 55.33900000
1.16499210 606361.87099196 59.56200000
1.13113560 606361.96696455 57.47600000
1.22599542 606361.55522845 63.67100000
1.20012720 606361.65076815 61.78900000
1.16621660 606361.74574221 59.79000000
1.36028960 606360.98412507 72.59700000
1.22090905 606361.46136616 63.63600000
1.35693476 606360.92221590 72.44400000
1.27660005 606361.17693601 67.29500000
1.25073183 606361.27247571 65.80900000
1.35184840 606360.82835361 72.44400000
1.32498165 606360.92394743 70.62500000
1.34849356 606360.76644444 72.44400000
1.34340719 606360.67258216 72.44800000
1.33832083 606360.57871987 72.45600000
1.33496599 606360.51681070 72.45800000
1.33686937 606360.42256964 72.46000000
1.33178300 606360.32870736 72.45500000
1.32842816 606360.26679819 72.45800000
1.32334180 606360.17293590 72.54500000
1.31825543 606360.07907361 72.54000000
1.30958827 606360.04849780 71.78100000
1.32411337 606359.89148181 73.24500000
1.30450190 606359.95463552 71.77300000
1.31902700 606359.79761952 73.23300000
1.29941554 606359.86077323 71.77700000
1.31561805 606359.73471182 73.21200000
1.31058580 606359.64184807 73.16500000
1.30549943 606359.54798578 73.19200000
1.28253313 606359.54923032 71.79100000
1.28443651 606359.45498926 71.79100000
1.30794842 606359.29748628 73.62500000
1.30476543 606359.10938293 73.84700000
1.30141060 606359.04747376 73.94300000
1.29632423 606358.95361148 74.05100000
1.29922614 606358.85931631 74.16400000
1.25738136 606358.95572178 71.75200000
1.29419389 606358.76645256 74.15600000
1.25229500 606358.86185949 71.77700000
1.27748433 606358.73531109 73.45800000
1.25692844 606358.79951744 71.77700000
1.27245208 606358.64244734 73.38600000
1.25184207 606358.70565515 71.78100000
1.27435545 606358.54820628 73.59800000
1.24675571 606358.61179287 71.78800000
1.26395676 606358.48567735 73.16600000
1.25892451 606358.39281360 73.15300000
1.25551556 606358.32990590 73.15100000
1.25741894 606358.23566484 73.15200000
1.25238668 606358.14280109 73.22200000
1.24897773 606358.07989338 73.36100000
1.25819051 606357.95421075 74.19400000
1.25483567 606357.89230158 74.16600000
1.24974930 606357.79843929 74.15100000
1.22214956 606357.86202588 72.39200000
1.25265122 606357.70414412 74.12400000
1.21711730 606357.76916213 72.29500000
1.24929638 606357.64223496 74.09700000
1.24421001 606357.54837267 74.07300000
1.24080106 606357.48546497 74.05300000
1.20526715 606357.55048297 71.94400000
1.23576881 606357.39260121 74.02600000
1.23068244 606357.29873893 73.99900000
1.19509442 606357.36275840 71.83300000
1.22727349 606357.23583122 73.97000000
1.19173958 606357.30084923 71.93200000
1.22224124 606357.14296747 73.94400000
1.16436579 606357.23924017 70.36100000
1.21883229 606357.08005977 73.92800000
1.15402121 606357.17770978 70.10800000
1.21374592 606356.98619748 73.91500000
1.13463570 606357.11566784 68.88800000
1.20871367 606356.89333373 73.92800000
1.21329300 606356.82999315 73.93300000
1.22150724 606356.70436462 75.08300000
1.21642087 606356.61050234 75.08100000
1.22105431 606356.54816028 75.08300000
1.21596795 606356.45429800 75.08600000
1.21261311 606356.39238883 75.08500000
1.02969483 606356.62062096 64.05600000
1.20752674 606356.29852654 75.08100000
1.20244038 606356.20466426 75.06900000
0.98398818 606356.49791439 62.02000000
1.19908554 606356.14275509 75.05000000
0.98694421 606356.40461775 62.18000000
1.19399917 606356.04889280 75.04100000
1.19059023 606355.98598510 75.03600000
0.94023902 606356.28196529 59.81200000
0.88944601 606356.06539644 57.54800000
0.88435964 606355.97153415 57.52500000
0.77429484 606356.10268192 51.02700000
0.85005022 606355.91130240 55.54900000
0.79757979 606355.66377896 53.24000000
0.79249342 606355.56991667 53.23300000
0.75014161 606355.50911927 51.06200000
0.73081021 606355.44807587 49.93700000
0.72572384 606355.35421358 49.96200000
1.46696200 606361.51112507 73.79100000
1.45220993 606361.38674108 73.38800000
1.11634597 606362.56263750 51.94200000
1.17203696 606362.27820734 55.34500000
1.13812635 606362.37318140 53.36100000
1.09795900 606362.50054145 51.03500000
1.16695060 606362.18434506 55.34000000
1.22789980 606361.86758301 59.61100000
1.19404331 606361.96355560 57.50600000
1.25504663 606361.64779209 61.80500000
1.22286755 606361.77471926 59.77800000
1.19694522 606361.86926043 57.72200000
1.42393030 606361.01272335 72.57200000
1.28381676 606361.45795721 63.65900000
1.41884393 606360.91886106 72.46000000
1.41543499 606360.85595336 72.45500000
1.41040273 606360.76308961 72.44200000
1.40531636 606360.66922732 72.42000000
1.40190741 606360.60631962 72.39100000
1.39687516 606360.51345586 72.37600000
1.39178879 606360.41959358 72.36300000
1.38837984 606360.35668587 72.37500000
1.39133587 606360.26338924 72.38800000
1.39423778 606360.16909407 72.80600000
1.38116314 606360.07566467 72.60000000
1.39105479 606359.98099073 73.31700000
1.37149744 606360.04514297 71.77700000
1.38602254 606359.88812697 73.28600000
1.36641107 606359.95128068 71.77700000
1.38261359 606359.82521927 73.24600000
1.36305623 606359.88937151 71.76300000
1.37752722 606359.73135698 73.21600000
1.35796987 606359.79550922 71.77400000
1.37249497 606359.63849323 73.16600000
1.37707430 606359.57515265 73.20800000
1.34952866 606359.63973777 71.77100000
1.37198793 606359.48129036 73.32100000
1.34444230 606359.54587548 71.78700000
1.36695568 606359.38842661 73.43900000
1.33935593 606359.45201320 71.78600000
1.36985759 606359.29413144 73.61500000
1.36477122 606359.20026915 73.72200000
1.36940466 606359.13792710 73.84500000
1.36431830 606359.04406482 73.93900000
1.35923193 606358.95020253 74.04500000
1.36213384 606358.85590736 74.16500000
1.35877901 606358.79399819 74.16400000
1.31520270 606358.85845054 71.78600000
1.34738178 606358.73152337 73.52800000
1.34234952 606358.63865962 73.41700000
1.33726316 606358.54479733 73.54500000
1.34815335 606358.45006928 74.34400000
1.34306698 606358.35620700 74.33000000
1.33971215 606358.29429783 74.31900000
1.33462578 606358.20043554 74.28900000
1.32953941 606358.10657325 74.26300000
1.30898352 606358.17077960 72.87400000
1.32618458 606358.04466409 74.24700000
1.30389716 606358.07691732 72.78800000
1.32808795 606357.95042303 74.23200000
1.32473312 606357.88851386 74.20800000
1.31964675 606357.79465157 74.15200000
1.31456038 606357.70078929 74.12300000
1.31120555 606357.63888012 74.11100000
1.30611918 606357.54501783 74.07200000
1.30271023 606357.48211013 74.03000000
1.26717632 606357.54712813 71.98200000
1.29767798 606357.38924638 74.02700000
1.26208995 606357.45326585 71.77200000
1.29259161 606357.29538409 74.00300000
1.25700358 606357.35940356 71.80500000
1.31147008 606357.20022316 75.20600000
1.25364875 606357.29749439 71.93100000
1.30638372 606357.10636087 75.21000000
1.22727349 606357.23583122 70.36300000
1.30302888 606357.04445170 75.20400000
1.21593038 606357.17435494 70.09600000
1.29794251 606356.95058942 75.18200000
1.25442032 606357.01604030 72.61100000
1.19654487 606357.11231300 68.89700000
1.29285615 606356.85672713 75.17400000
1.25732223 606356.92174513 72.80500000
1.28950131 606356.79481796 75.16000000
1.26022414 606356.82744996 73.13500000
1.29240322 606356.70052279 75.15200000
1.28904838 606356.63861362 75.13900000
1.28396202 606356.54475134 75.12500000
1.27887565 606356.45088905 75.10900000
1.27552081 606356.38897988 75.09500000
1.27043445 606356.29511760 75.08100000
1.26534808 606356.20125531 75.06600000
1.04589735 606356.49455955 62.04800000
1.26199324 606356.13934614 75.05500000
1.26389662 606356.04510508 75.04500000
1.26048767 606355.98219738 75.04100000
1.00314673 606356.27855635 59.86100000
0.95235371 606356.06198749 57.51100000
0.94726735 606355.96812520 57.51300000
0.83720254 606356.09927298 51.02700000
0.91295792 606355.90789345 55.58300000
0.86048749 606355.66037001 53.20800000
0.85540112 606355.56650773 53.21500000
0.81478084 606355.53766344 51.03400000
0.79371792 606355.44466692 49.96900000
0.78863155 606355.35080464 49.97200000
1.21356309 606362.61946030 51.81900000
1.23439905 606362.43105684 53.28300000
1.20679931 606362.49464343 51.80500000
1.25617944 606362.24160074 55.17400000
1.22931269 606362.33719456 53.43000000
1.31718276 606361.92583723 59.40300000
1.29131454 606362.02137694 57.43600000
1.35226375 606361.70461489 61.73300000
1.32539700 606361.80020870 59.72900000
1.29154050 606361.89618129 57.93000000
1.37309971 606361.51621143 63.45800000
1.42773806 606361.23083685 67.15600000
1.38231249 606361.39052880 64.13800000
1.35539162 606361.48512408 62.51400000
1.45025144 606361.07338798 68.68100000
1.42438322 606361.16892768 67.10600000
1.45946421 606360.94770534 69.50000000
1.46867699 606360.82202271 70.14100000
1.46359062 606360.72816042 70.22200000
1.45855837 606360.63529667 70.29200000
1.46313770 606360.57195608 70.38700000
1.45805133 606360.47809380 70.46700000
1.45301908 606360.38523005 70.54500000
1.45492245 606360.29098899 70.62100000
1.44983609 606360.19712670 70.71200000
1.44648125 606360.13521753 70.78800000
1.44938316 606360.04092236 70.87300000
1.44429680 606359.94706008 70.95900000
1.43921043 606359.85319779 71.03500000
1.44216645 606359.75990116 71.11300000
1.43875751 606359.69699345 71.19800000
1.43367114 606359.60313117 71.30300000
1.43662716 606359.50983453 71.36100000
1.43154080 606359.41597225 71.45300000
1.42645443 606359.32210996 71.52600000
1.43108787 606359.25976791 71.56900000
1.42600151 606359.16590562 71.67600000
1.41247394 606358.91627188 71.66600000
1.40738757 606358.82240959 71.59700000
1.40403273 606358.76050043 71.51700000
1.39894637 606358.66663814 71.43000000
1.39553742 606358.60373044 71.35500000
1.39050516 606358.51086668 71.29000000
1.38541880 606358.41700440 71.17800000
1.38200985 606358.35409669 71.14900000
1.37697759 606358.26123294 71.05800000
1.37356864 606358.19832524 70.94500000
1.36848228 606358.10446295 71.04100000
1.37043977 606358.01122043 71.15200000
1.36535340 606357.91735814 71.24900000
1.36825531 606357.82306297 71.38800000
1.36490047 606357.76115381 71.54100000
1.36780239 606357.66685864 71.93400000
1.36271602 606357.57299635 71.91300000
1.35762965 606357.47913406 71.87700000
1.35427482 606357.41722490 71.90500000
1.35717673 606357.32292973 72.11400000
1.36007864 606357.22863456 72.46000000
1.33153447 606357.29327379 70.60700000
1.35504639 606357.13577081 72.45600000
1.31945836 606357.19979027 70.20300000
1.29381610 606357.17013434 68.72400000
1.28074146 606357.07670493 68.39200000
1.26240860 606357.01560742 67.31900000
1.24592500 606356.85927031 66.72600000
1.20820663 606356.73613086 64.87700000
1.18887524 606356.67508746 64.08700000
1.14947945 606356.52099342 62.35400000
1.14607050 606356.45808572 62.34000000
1.10036385 606356.33537915 59.93000000
1.09527748 606356.24151686 59.77700000
1.04789342 606356.08785571 57.62500000
1.04979680 606355.99361465 57.71900000
1.00917651 606355.96477037 55.40000000
1.00409015 606355.87090808 55.38800000
0.92452700 606355.84417410 51.04000000
0.95670608 606355.71724693 53.30500000
0.91944063 606355.75031181 51.03900000
0.95161971 606355.62338464 53.32300000
0.90932201 606355.56358577 51.04100000
0.90423565 606355.46972349 51.03200000
0.88590278 606355.40862597 49.76300000
1.26725802 606362.74173399 49.52700000
1.32195048 606362.45735794 53.20800000
1.35077472 606362.26852160 55.08300000
1.31686411 606362.36349566 53.22900000
1.41104505 606361.92075086 59.31900000
1.37786743 606362.04773215 57.39500000
1.34401094 606362.14370473 55.36100000
1.40763610 606361.85784316 59.33200000
1.46863942 606361.54207965 63.37400000
1.44177267 606361.63767346 61.68000000
1.52333188 606361.25770360 67.21700000
1.49573213 606361.32129019 65.72000000
1.47685366 606361.41645112 64.20600000
1.51824551 606361.16384132 67.11100000
1.53277061 606361.00682533 68.59100000
1.53567252 606360.91253016 68.67700000
1.55119616 606360.75546006 70.19800000
1.53226358 606360.84962245 68.63700000
1.54778721 606360.69255235 70.08400000
1.25331510 606361.61583897 51.05300000
1.54270084 606360.59869007 69.99500000
1.53766859 606360.50582631 69.89600000
1.53425964 606360.44291861 69.86900000
1.52917327 606360.34905632 69.78500000
1.52581844 606360.28714716 69.71800000
1.52073207 606360.19328487 69.64200000
1.51564570 606360.09942258 69.57800000
1.51229087 606360.03751342 69.50000000
1.50720450 606359.94365113 69.43200000
1.50211813 606359.84978884 69.39900000
1.49876330 606359.78787967 69.31600000
1.49367693 606359.69401739 69.24800000
1.49032209 606359.63210822 69.17600000
1.47093658 606359.57006628 68.31700000
1.46585022 606359.47620399 68.33300000
1.47048366 606359.41386194 68.36100000
1.46539729 606359.31999966 68.50000000
1.46031093 606359.22613737 68.55800000
1.46326695 606359.13284074 68.64800000
1.45818058 606359.03897845 68.70700000
1.45309422 606358.94511616 68.79100000
1.45672913 606358.88282822 68.85100000
1.45164276 606358.78896594 68.93000000
1.44655639 606358.69510365 68.99800000
1.48504633 606358.53678901 71.29100000
1.44945831 606358.60080848 69.06800000
1.47995997 606358.44292673 71.20600000
1.44442605 606358.50794473 69.13600000
1.47487360 606358.34906444 71.17700000
1.44101710 606358.44503703 69.21700000
1.47151876 606358.28715527 71.09200000
1.44391901 606358.35074186 69.28000000
1.46643240 606358.19329298 71.00000000
1.43888676 606358.25787811 69.36100000
1.46307756 606358.13138382 70.92800000
1.43380039 606358.16401582 69.41900000
1.45799119 606358.03752153 70.84900000
1.45290483 606357.94365924 70.77900000
1.44954999 606357.88175007 70.69300000
1.44446362 606357.78788779 70.62500000
1.44105467 606357.72498009 70.54900000
1.42272181 606357.66388257 69.95200000
1.41763544 606357.57002028 69.97300000
1.42053736 606357.47572512 70.00000000
1.42249485 606357.38248259 70.49600000
1.41740848 606357.28862031 70.60100000
1.41399953 606357.22571260 70.16400000
1.39566667 606357.16461509 69.41000000
1.37628116 606357.10257315 68.66300000
1.37124891 606357.00970940 68.47000000
1.34487365 606356.94804623 67.22300000
1.33353054 606356.88656995 66.81900000
1.31414503 606356.82452801 65.79100000
1.30280191 606356.76305172 65.05300000
1.28441494 606356.70095567 64.12600000
1.27134030 606356.60752627 63.55500000
1.23993279 606356.45299935 62.42300000
1.20121588 606356.32991401 60.29800000
1.18987277 606356.26843772 59.81000000
1.03745615 606356.33878810 51.06600000
1.14243459 606356.11377804 57.56100000
1.03236978 606356.24492581 51.06000000
1.13740233 606356.02091428 57.77000000
1.09672794 606355.99107147 55.31900000
1.09169568 606355.89820771 55.33900000
1.08660932 606355.80434543 55.32600000
1.05224578 606355.74311514 53.38700000
1.01503445 606355.77717856 51.03400000
1.04721353 606355.65025139 53.40000000
1.00994808 606355.68331628 51.00600000
1.02083828 606355.58858822 51.93000000
0.99977535 606355.49559170 51.04700000
0.97177679 606355.40397249 49.64500000
1.38195627 606362.54824416 51.78200000
1.42965898 606362.26424689 55.11800000
1.39648137 606362.39122817 53.24300000
1.46374144 606362.04307866 57.40900000
1.43156236 606362.17000583 55.37500000
1.39770586 606362.26597842 53.47100000
1.48552183 606361.85362256 59.35400000
1.54820256 606361.56881363 63.38800000
1.52065693 606361.63339875 61.68700000
1.49546759 606361.75994715 59.83700000
1.58328356 606361.34759129 65.73400000
1.52887117 606361.50777023 62.63800000
1.59780866 606361.19057530 67.11100000
1.62032204 606361.03312643 68.48300000
1.61523567 606360.93926414 68.79100000
1.63874758 606360.78176116 70.17900000
1.61014930 606360.84540185 68.71200000
1.63366122 606360.68789887 70.15200000
1.33293235 606361.64357149 51.04100000
1.63030638 606360.62598970 70.01600000
1.62522001 606360.53212741 69.94400000
1.62013365 606360.43826513 69.83300000
1.61677881 606360.37635596 69.80500000
1.61169244 606360.28249367 69.72300000
1.60828350 606360.21958597 69.63300000
1.60325124 606360.12672222 69.60000000
1.59017659 606360.03329281 69.46600000
1.59475593 606359.96995223 69.44400000
1.58972367 606359.87708848 69.40200000
1.58631472 606359.81418077 69.32200000
1.58122835 606359.72031849 69.26700000
1.57619610 606359.62745474 69.19300000
1.55848801 606359.59636738 68.26700000
1.55345575 606359.50350363 68.28800000
1.55127130 606359.31534617 68.49400000
1.54618494 606359.22148389 68.55200000
1.54283010 606359.15957472 68.63900000
1.53774373 606359.06571243 68.69800000
1.54064564 606358.97141726 68.79500000
1.53561339 606358.87855351 68.81600000
1.53751677 606358.78431245 68.91400000
1.56801843 606358.62643070 71.38900000
1.53410782 606358.72140475 68.98300000
1.56293206 606358.53256841 71.31900000
1.52907556 606358.62854100 69.05200000
1.55952311 606358.46966071 71.23600000
1.52398920 606358.53467871 69.11300000
1.55449086 606358.37679696 71.16700000
1.52689111 606358.44038354 69.20300000
1.54940449 606358.28293467 71.09200000
1.52180474 606358.34652126 69.25200000
1.54599554 606358.22002697 71.02100000
1.51844990 606358.28461209 69.32700000
1.54096328 606358.12716321 70.93900000
1.52135182 606358.19031692 69.37300000
1.53755434 606358.06425551 70.87500000
1.53246797 606357.97039322 70.79000000
1.52743571 606357.87752947 70.69600000
1.52402677 606357.81462177 70.62700000
1.51894040 606357.72075948 70.54100000
1.50859582 606357.65922909 69.88400000
1.50350945 606357.56536680 69.95800000
1.50015461 606357.50345763 69.97300000
1.50836885 606357.37782911 70.63800000
1.50495991 606357.31492140 70.69500000
1.49188526 606357.22149200 70.23400000
1.48853042 606357.15958283 70.11400000
1.46215517 606357.09791967 68.71100000
1.45880033 606357.03601050 68.47600000
1.43242508 606356.97434733 67.25700000
1.42108196 606356.91287105 66.80400000
1.40169646 606356.85082911 65.81400000
1.38168618 606356.75877701 65.01300000
1.36230067 606356.69673507 64.08700000
1.35095755 606356.63525879 63.59000000
1.32648568 606356.47935456 62.42900000
1.28077903 606356.35664799 60.25700000
1.26875703 606356.26416301 59.80500000
1.22305038 606356.14145644 57.51300000
1.11198704 606356.27265833 51.03900000
1.22495376 606356.04721538 57.78300000
1.17756969 606355.89355423 55.34400000
1.17248332 606355.79969194 55.35400000
1.09292018 606355.77295796 51.02700000
1.13308754 606355.64559791 53.38800000
1.08783381 606355.67909567 51.01300000
1.09872400 606355.58436762 51.94100000
1.08564936 606355.49093822 51.05300000
1.05932822 606355.43027359 49.67100000
1.05424185 606355.33641130 49.68000000
1.47749598 606362.57411238 51.65900000
1.52420015 606362.29016922 54.90200000
1.49833194 606362.38570892 53.10100000
1.55928115 606362.06894688 57.35400000
1.53341293 606362.16448658 55.39300000
1.50754471 606362.26002629 53.65900000
1.58810539 606361.88011054 59.14500000
1.66966460 606361.50014068 64.71100000
1.64905460 606361.56334849 63.17200000
1.62318638 606361.65888820 61.61700000
1.66457823 606361.40627839 64.63400000
1.63871001 606361.50181810 62.90000000
1.67910333 606361.24926240 65.94800000
1.68200524 606361.15496723 66.20600000
1.69121802 606361.02928460 67.01300000
1.43859068 606361.85616574 50.98600000
1.68613165 606360.93542231 66.90500000
1.68277681 606360.87351314 66.80900000
1.67769045 606360.77965085 66.77900000
1.43137397 606361.57514453 51.02700000
1.67260408 606360.68578857 66.69700000
1.66924924 606360.62387940 66.62500000
1.66416288 606360.53001711 66.53000000
1.65276565 606360.46754229 66.23100000
1.64773339 606360.37467854 66.02200000
1.64432445 606360.31177084 66.03100000
1.63923808 606360.21790855 66.03100000
1.64219410 606360.12461192 66.04400000
1.63710774 606360.03074963 66.08700000
1.63814284 606358.90404296 68.60000000
1.63305647 606358.81018067 68.52400000
1.62970163 606358.74827150 68.44500000
1.62461527 606358.65440922 68.35500000
1.61952890 606358.56054693 68.32900000
1.61617406 606358.49863776 68.25000000
1.61108770 606358.40477547 68.16300000
1.60600133 606358.31091319 68.13500000
1.60264649 606358.24900402 68.04100000
1.59756013 606358.15514173 67.98100000
1.59415118 606358.09223403 67.91600000
1.58911892 606357.99937028 67.81900000
1.58403256 606357.90550799 67.81600000
1.57894619 606357.81164570 67.87500000
1.57385982 606357.71778342 67.97400000
1.57849327 606357.65544137 68.09200000
1.57340690 606357.56157908 68.22200000
1.58429709 606357.46685103 68.79100000
1.57926484 606357.37398728 68.76400000
1.57417847 606357.28012499 68.66600000
1.53859044 606357.34414446 66.71600000
1.57076952 606357.21721729 68.59900000
1.54054793 606357.25090194 66.77200000
1.56573727 606357.12435354 68.48300000
1.55266262 606357.03092413 68.10500000
1.53327711 606356.96888219 67.40200000
1.52992227 606356.90697303 67.03700000
1.50354702 606356.84530986 65.70800000
1.49220391 606356.78383357 65.44300000
1.47281840 606356.72179164 64.23600000
1.45448554 606356.66069412 63.36800000
1.42833624 606356.47383531 62.64500000
1.39061788 606356.35069586 60.64500000
1.37128648 606356.28965246 59.83300000
1.21886986 606356.36000283 51.04100000
1.33189069 606356.13555842 57.97900000
1.33479260 606356.04126325 57.98600000
1.28908595 606355.91855668 55.70100000
1.27601131 606355.82512728 55.29800000
1.23661552 606355.67103324 53.48600000
1.20924173 606355.60942419 51.81200000
1.19622120 606355.51699332 51.70700000
1.17615681 606355.42394268 50.82500000
1.15386939 606355.45619591 49.40100000
1.15677130 606355.36190075 49.45800000
1.55370428 606362.53893720 51.60900000
1.60040846 606362.25499403 54.86800000
1.57448613 606362.34953520 53.08300000
1.63548945 606362.03377169 57.32400000
1.60331038 606362.16069886 55.40200000
1.57571063 606362.22428545 53.68700000
1.65726984 606361.84431559 59.06200000
1.71995058 606361.55950666 63.11100000
1.69140641 606361.62414589 61.58200000
1.72648740 606361.40292355 63.91400000
1.74368845 606361.27680804 65.23700000
1.75190269 606361.15117951 65.79200000
1.74681633 606361.05731722 65.52100000
1.51479899 606361.82099056 51.03300000
1.73647174 606360.99578683 65.38400000
1.50971262 606361.72712827 51.04100000
1.75893101 606360.83733942 66.82900000
1.73138538 606360.90192454 65.23600000
1.75389876 606360.74447567 66.74600000
1.72797643 606360.83901684 65.12600000
1.75048981 606360.68156797 66.71800000
1.50249591 606361.44610706 51.06800000
1.74540344 606360.58770568 66.62200000
1.74037119 606360.49484193 66.53900000
1.73696224 606360.43193422 66.46600000
1.73187587 606360.33807194 66.39100000
1.72684362 606360.24520819 66.30600000
1.72343467 606360.18230048 66.23100000
1.71834830 606360.08843820 66.16000000
1.71331605 606359.99557444 66.09400000
1.70990710 606359.93266674 66.02700000
1.70482073 606359.83880445 65.93900000
